ncols         556
nrows         44
xllcorner     128.866666667
yllcorner     -24.6333366667
cellsize      0.01666666666666669
NODATA_value  -9999
392 376 357 343 328 321 311 309 297 301 307 313 323 333 332 350 362 358 350 350 353 349 350 358 372 379 383 401 405 392 384 382 383 385 398 400 398 385 397 400 393 398 394 412 430 419 405 380 400 421 409 386 378 394 412 404 388 389 394 361 343 358 383 398 391 414 425 413 386 356 353 349 343 360 391 383 357 383 394 381 364 347 327 309 302 307 330 350 348 338 325 306 304 300 301 305 318 339 356 362 363 355 375 383 373 372 387 399 409 419 419 421 427 435 433 428 435 423 402 391 376 387 386 375 375 399 412 409 413 405 405 398 401 392 388 396 392 389 379 363 356 347 335 326 331 331 329 327 328 331 335 321 313 314 318 328 339 350 368 366 348 330 319 306 301 302 317 328 320 305 303 299 296 295 297 317 340 353 366 370 378 371 356 339 323 306 295 302 326 347 337 317 305 300 292 277 284 300 311 309 301 294 288 282 274 268 268 266 265 266 268 274 272 272 275 276 279 289 287 288 284 288 293 293 293 290 285 287 290 295 295 292 286 292 292 294 289 287 292 292 295 293 293 292 293 292 292 287 280 283 276 278 276 280 267 259 254 253 252 245 244 250 241 240 239 239 240 238 237 234 230 224 224 222 222 225 220 212 206 202 205 203 202 202 202 201 200 200 201 201 203 205 205 205 206 208 210 211 214 224 227 223 226 226 229 234 232 237 239 244 248 250 254 258 259 264 274 274 270 268 269 267 266 256 262 263 253 254 249 247 257 256 241 233 219 210 204 201 196 190 185 181 176 172 167 163 161 158 153 153 165 174 170 180 188 190 168 150 140 131 132 140 134 124 118 121 125 118 112 113 107 105 104 102 101 100 100 98 98 101 106 110 111 111 106 102 101 103 110 113 108 105 103 99 93 90 90 89 95 99 89 82 80 74 80 85 90 90 92 96 99 103 106 110 115 119 122 124 127 128 135 141 144 156 177 199 217 176 145 134 127 114 106 99 94 87 69 63 59 58 54 44 44 48 46 50 41 34 35 42 41 43 41 37 31 28 26 23 21 19 17 17 17 16 15 12 10 8 6 7 7 6 6 5 4 3 2 0 -1 -2 -3 -4 -5 -6 -7 -7 -8 -15 -16 -16 -16 -16 -16 -16 -16 -16 -16 -16 -16 -16 -16 -16 -16 -16 -16 -16 -16 -16 -16 -16 -16 -16 -16 -16 -16 -16 -16 -16 -16 -16 -16 -14 -12 -10 -2 -12 -14 -13 -13 -3 -0 1 -5 -9 -3 -6 3 3 4 -1 -9 -9 -5 -2 8 11 16 14 14 14 2 -6 -8 -8 -8 -2
371 368 350 340 323 309 301 301 297 303 318 324 330 339 344 346 362 367 362 358 363 359 366 363 380 388 399 394 391 384 376 367 373 388 391 391 386 375 382 380 384 395 407 423 415 403 391 377 391 414 422 404 386 398 422 425 407 390 382 358 347 355 374 390 403 415 421 398 380 381 372 358 374 370 399 389 380 388 374 348 346 340 323 325 310 319 336 356 348 349 331 320 314 295 299 304 321 338 350 362 366 366 369 367 376 391 398 404 410 402 400 402 411 416 417 411 426 427 419 401 393 399 393 394 390 400 407 402 391 385 385 380 376 370 370 376 380 389 377 363 351 342 331 327 328 329 325 323 329 329 327 321 319 317 312 327 336 346 362 361 356 345 331 316 312 313 312 326 325 320 300 294 290 304 316 327 338 354 366 378 372 361 354 333 315 305 297 303 326 344 338 319 307 292 279 274 289 293 295 289 285 276 272 263 262 266 265 262 267 268 267 265 268 271 272 272 275 278 284 288 286 277 288 297 302 289 278 283 291 294 293 295 290 293 299 297 296 297 298 298 295 297 296 293 293 293 289 281 286 286 278 271 267 265 266 260 253 251 248 241 247 245 238 241 241 238 238 231 226 223 219 219 214 214 213 212 209 204 201 202 202 202 200 200 201 201 200 202 204 201 202 204 201 202 205 207 209 210 211 213 217 221 223 225 228 230 232 236 239 242 245 247 252 255 260 267 271 272 273 269 264 262 256 251 254 257 248 243 241 238 244 254 252 248 232 220 215 208 195 183 177 173 170 168 168 165 160 156 155 158 178 201 182 179 189 174 170 169 135 138 141 143 133 125 123 127 119 114 121 116 109 106 105 104 107 109 103 100 102 110 112 110 109 107 106 107 104 106 113 112 109 105 99 95 95 95 94 90 99 94 88 86 85 76 78 81 89 90 90 97 101 105 110 114 117 122 126 131 135 137 132 144 150 155 166 187 208 186 169 152 138 125 118 106 94 81 72 71 69 62 52 44 45 50 56 53 42 37 42 46 44 41 38 35 30 28 26 23 21 20 21 24 25 25 22 18 13 13 10 5 7 6 5 4 3 2 1 -0 -1 -2 -4 -5 -6 -7 -7 -8 -8 -12 -15 -16 -16 -16 -16 -16 -16 -16 -16 -16 -16 -16 -16 -16 -16 -16 -16 -16 -16 -16 -15 -16 -16 -16 -16 -16 -16 -16 -16 -16 -16 -16 -15 -15 -15 -14 -5 -3 -7 -8 -12 -7 2 1 1 -7 1 1 0 2 0 -5 -9 -9 -3 4 6 10 10 15 17 19 12 8 -2 -6 -8 -1
357 355 348 325 314 303 299 298 294 304 315 327 342 353 357 362 363 376 384 377 383 376 369 374 372 373 379 371 372 377 365 360 383 390 380 381 370 382 380 388 396 398 402 399 399 386 374 374 397 418 428 416 409 406 407 428 416 399 394 369 354 364 379 383 409 427 426 400 402 385 377 374 395 389 398 384 382 365 332 341 352 333 354 333 333 349 355 366 358 339 323 316 312 297 296 299 311 323 337 345 347 348 345 350 362 371 377 395 402 392 383 401 414 407 397 406 417 423 423 414 406 406 406 402 397 391 380 390 376 382 361 356 353 346 348 349 360 368 364 350 341 333 328 325 327 327 328 329 328 330 328 324 327 318 316 323 335 346 359 344 339 336 332 321 318 315 309 317 320 306 296 289 294 307 320 335 345 361 372 370 361 351 333 319 314 309 299 295 312 327 324 306 294 286 268 269 272 275 273 272 267 262 260 262 263 261 265 269 262 278 276 273 267 270 270 272 277 283 285 287 288 287 290 296 306 298 289 278 278 290 295 299 295 296 301 302 301 300 299 296 299 298 292 292 293 291 285 277 281 277 271 265 258 257 263 265 261 256 248 244 245 239 237 241 243 239 232 235 233 226 222 227 219 211 208 205 205 203 206 199 197 199 198 198 199 199 195 199 204 205 205 200 200 203 204 206 208 208 210 213 216 219 221 224 227 230 233 236 238 243 246 249 255 260 268 273 275 273 269 265 260 266 259 247 246 250 242 235 232 231 239 237 246 233 236 230 221 209 193 182 177 174 171 167 165 163 162 163 163 166 175 186 190 175 170 163 158 158 152 142 156 145 135 128 129 127 118 119 126 113 116 115 114 108 116 110 104 105 108 115 118 114 114 111 112 108 106 106 114 117 112 105 102 102 103 98 93 94 102 101 97 93 84 79 78 83 82 89 93 99 103 106 112 116 121 128 135 139 146 146 137 143 157 159 166 190 214 219 187 171 170 141 120 104 92 91 84 76 68 61 51 46 50 53 64 52 41 45 49 48 45 39 35 33 31 29 27 24 21 26 27 33 43 36 27 21 15 16 15 8 4 5 5 4 3 1 0 -1 -3 -3 -4 -6 -7 -8 -9 -8 -9 -13 -15 -16 -16 -16 -16 -16 -16 -16 -16 -16 -16 -16 -16 -16 -16 -16 -16 -16 -16 -16 -16 -16 -16 -16 -16 -16 -16 -16 -16 -16 -16 -15 -14 -16 -16 -15 -13 -0 -3 -2 -5 -9 2 5 4 3 -7 -6 -10 1 11 7 -2 -9 -8 11 14 16 14 15 14 17 17 14 13 8 1 4
363 340 337 320 313 309 301 294 293 306 320 330 342 349 360 376 371 370 374 381 370 355 352 368 355 365 363 362 362 371 365 354 367 363 358 364 366 372 381 383 388 378 380 380 371 371 365 371 394 416 429 424 416 424 420 434 428 408 387 374 370 388 374 392 404 420 433 425 416 407 396 390 406 390 366 359 348 336 337 365 367 345 359 338 355 369 369 357 336 328 312 300 297 294 292 294 297 303 321 335 329 328 330 335 345 359 373 386 381 371 376 401 409 388 379 389 401 408 414 421 404 394 399 400 384 372 374 377 367 371 366 358 343 332 326 332 339 341 338 336 336 324 325 325 325 331 332 331 329 324 323 327 327 322 312 312 328 347 351 333 322 311 312 302 299 299 299 314 307 298 293 291 306 319 329 339 351 365 362 346 344 349 339 335 329 314 302 292 299 308 304 300 281 274 264 256 256 258 257 257 256 258 261 261 256 259 274 277 271 283 291 282 269 261 265 269 275 287 295 285 285 286 284 297 309 301 293 284 283 285 294 302 306 302 302 302 302 299 299 299 298 293 295 293 291 284 274 278 282 275 265 260 262 257 260 262 263 255 252 248 240 241 234 240 243 239 238 237 231 224 226 229 222 217 218 214 215 210 209 204 197 197 197 197 198 200 198 196 200 204 203 201 200 204 203 204 207 209 211 212 215 218 221 223 226 229 232 236 241 245 250 252 255 258 263 270 272 271 269 266 258 256 261 250 241 242 235 231 228 227 231 228 229 223 224 225 209 195 186 181 179 177 172 169 171 175 176 176 175 173 171 173 175 171 164 159 152 149 146 155 151 137 130 126 126 123 119 123 130 119 122 124 116 111 117 113 106 112 117 123 118 119 120 116 113 109 108 109 113 112 110 110 107 100 99 98 100 99 103 100 94 89 89 79 80 84 82 86 95 99 105 107 111 117 123 129 139 141 146 148 143 143 148 155 167 183 200 222 218 209 178 166 132 117 104 99 83 79 63 57 50 55 61 58 67 53 46 53 53 50 47 39 37 35 32 29 27 24 23 31 35 41 41 34 30 21 19 17 14 6 4 2 4 3 2 1 -1 -3 -5 -5 -6 -7 -8 -8 -9 -9 -11 -15 -16 -16 -16 -16 -16 -16 -16 -16 -16 -16 -16 -16 -16 -16 -16 -16 -16 -16 -16 -16 -16 -16 -16 -16 -16 -16 -16 -16 -16 -16 -16 -14 -15 -16 -16 -15 -16 -7 -1 -1 -1 -2 -8 -0 6 5 -2 -10 -12 -3 15 23 17 6 -3 5 11 14 16 16 14 14 15 15 15 13 14 13
351 336 321 314 324 319 300 293 294 308 325 331 338 347 358 361 355 353 357 371 358 337 348 357 346 351 351 344 346 354 352 343 346 352 368 377 380 379 382 376 360 365 366 353 355 359 370 382 404 410 412 401 396 423 439 443 431 413 394 398 380 398 388 393 407 429 435 422 408 414 413 414 393 380 387 378 360 345 366 365 363 364 368 357 372 367 356 349 347 338 324 298 295 292 290 291 293 297 306 311 312 317 321 328 342 355 366 363 361 357 370 391 390 374 376 397 404 417 420 408 402 384 380 397 385 373 360 360 359 368 347 349 344 328 318 314 322 320 327 336 348 331 326 325 321 323 325 330 326 324 321 323 327 326 320 318 334 352 346 332 323 313 301 292 292 291 306 310 294 294 291 297 313 331 352 355 345 351 347 335 339 358 351 331 318 309 294 276 287 289 286 279 269 260 257 256 256 257 258 259 258 259 260 256 257 255 270 280 281 285 294 287 273 263 261 263 271 284 293 291 284 279 284 298 307 304 296 290 278 275 286 298 306 304 301 303 301 301 300 298 299 298 296 289 289 282 274 276 283 279 266 261 262 261 258 256 259 254 252 241 236 241 234 238 242 242 238 233 228 230 230 230 224 225 224 222 220 218 210 205 199 195 197 196 198 204 200 195 196 197 199 198 198 204 206 205 205 209 213 213 214 217 219 222 225 228 233 237 243 247 250 254 259 264 267 271 273 274 271 271 263 253 247 245 240 235 231 231 228 222 222 222 222 218 222 209 197 190 186 185 184 179 176 175 182 184 181 179 177 173 171 169 179 174 161 160 162 157 148 159 152 139 133 129 130 127 121 131 142 130 121 122 124 117 119 115 111 112 122 127 124 127 119 114 111 112 115 117 120 113 109 105 104 101 105 106 104 103 102 101 98 98 96 85 79 86 87 89 96 101 108 110 114 120 129 134 135 142 148 152 143 148 154 159 168 189 206 227 238 233 222 195 150 131 117 93 73 64 60 56 52 62 66 62 68 54 54 57 55 52 45 40 37 34 33 30 27 25 28 40 51 50 43 38 29 25 23 17 16 8 8 5 2 0 -1 -2 -3 -3 -4 -7 -8 -8 -9 -10 -9 -8 -11 -15 -16 -16 -16 -16 -16 -16 -16 -16 -16 -16 -16 -16 -16 -16 -16 -16 -16 -16 -16 -16 -16 -16 -16 -16 -16 -16 -16 -16 -16 -16 -15 -13 -13 -16 -16 -15 -16 -14 -0 -1 -2 -1 -4 -9 5 5 9 8 -6 -11 5 15 19 23 16 12 16 13 15 23 16 16 15 12 13 16 18 16
344 344 331 318 312 300 300 291 297 306 317 325 334 347 345 341 341 345 353 351 346 336 335 341 328 329 333 326 330 335 336 338 346 364 378 387 387 384 371 358 347 349 348 346 367 372 381 398 405 389 387 381 396 412 439 442 433 417 411 414 395 401 407 415 413 429 434 420 411 392 400 412 404 402 405 394 381 367 386 381 372 371 387 387 387 375 370 363 355 339 325 302 310 293 290 288 288 290 295 296 297 296 304 312 327 342 347 343 351 361 380 390 375 356 375 396 409 416 413 392 395 388 371 379 389 386 370 349 351 366 344 333 327 321 309 308 310 311 316 331 330 336 344 331 323 323 324 323 323 322 322 326 337 333 321 319 330 343 347 351 342 324 304 294 295 292 292 291 294 292 303 320 334 346 344 345 338 340 346 335 332 344 332 314 310 293 281 268 266 265 260 257 254 256 256 257 257 257 257 258 258 259 254 264 266 265 275 284 283 283 296 293 277 272 272 273 279 281 280 277 278 276 289 300 308 308 297 294 285 280 284 289 302 303 301 301 298 298 300 299 298 296 289 286 287 279 274 277 284 269 258 256 262 254 254 250 249 246 247 237 233 237 236 241 243 240 238 236 235 235 234 234 229 229 221 216 213 214 211 204 197 194 196 197 198 205 206 201 199 196 197 197 196 199 205 204 207 208 214 216 213 216 219 222 225 228 232 237 241 244 248 255 264 273 275 276 276 274 273 269 264 256 251 247 241 240 250 251 243 234 224 219 212 209 217 212 197 192 192 191 184 181 187 186 192 190 190 184 177 172 170 168 181 181 176 171 171 162 160 165 164 150 135 128 134 125 126 140 141 127 129 136 135 128 126 125 118 115 118 131 135 126 117 114 118 120 123 119 117 110 105 101 99 98 100 103 106 103 99 99 98 93 89 83 80 88 93 93 100 105 110 114 118 126 131 141 138 146 149 153 147 151 158 166 176 190 214 249 281 310 323 212 184 147 116 92 78 75 68 62 68 74 72 67 71 63 59 59 55 50 43 39 37 37 34 30 27 27 34 51 49 46 41 30 24 20 19 18 17 12 9 6 3 1 1 1 0 -1 -2 -4 -6 -9 -10 -12 -15 -14 -10 -15 -16 -16 -16 -16 -16 -16 -16 -16 -16 -16 -16 -16 -16 -16 -16 -16 -16 -16 -16 -15 -15 -15 -16 -16 -16 -16 -16 -16 -16 -15 -13 -13 -13 -15 -16 -15 -15 -15 -7 2 0 0 1 -4 -4 8 6 7 0 -6 2 -4 -8 10 20 18 22 21 6 16 19 16 17 14 12 10 14 14
340 331 335 320 308 306 307 292 295 305 313 320 333 328 323 327 338 343 336 336 336 330 317 317 314 315 319 324 336 349 357 346 362 358 365 379 381 370 350 344 332 333 336 347 353 361 370 394 404 381 372 381 407 422 436 426 413 426 430 422 420 412 422 419 410 421 427 425 413 395 384 409 413 395 390 380 383 384 385 390 383 380 382 391 382 367 356 338 332 327 321 305 294 293 292 288 286 287 293 305 302 297 301 303 316 335 330 346 353 368 371 370 352 356 375 380 387 401 406 389 378 378 374 368 378 380 363 351 341 354 341 331 324 318 316 320 317 314 305 313 314 320 328 330 328 328 324 322 320 319 320 330 332 322 307 308 314 323 325 341 338 320 305 291 292 294 292 291 291 298 317 333 341 331 323 336 336 329 325 323 329 326 313 306 292 276 266 262 257 256 256 257 257 258 257 256 252 253 254 257 257 261 265 269 268 268 272 281 288 288 289 301 283 277 277 281 284 281 272 270 276 281 279 293 304 312 308 305 297 292 294 299 302 300 301 297 295 294 293 293 294 291 286 284 283 277 269 273 275 261 254 247 250 249 251 251 251 249 244 238 235 240 241 244 241 237 232 234 236 237 239 233 226 227 223 220 213 207 210 206 198 194 195 196 197 204 209 206 202 202 200 201 195 197 202 206 208 210 211 213 213 217 219 222 226 230 232 236 240 244 249 253 259 273 275 277 275 273 270 266 262 259 254 245 251 255 257 251 252 240 226 234 223 207 204 200 197 199 196 188 189 195 196 200 203 199 189 183 181 177 168 165 174 187 184 176 172 170 168 161 156 154 142 136 137 125 137 146 135 130 138 145 147 139 133 125 120 120 123 122 125 122 118 118 122 119 116 110 110 106 106 103 102 102 102 102 104 100 96 91 89 85 83 83 81 90 94 98 104 107 111 115 120 123 131 138 142 147 159 161 153 154 162 175 186 203 219 264 336 345 361 283 221 159 141 125 108 98 91 85 84 79 74 72 73 63 56 52 48 45 42 42 40 38 36 32 32 33 39 46 40 36 33 24 21 19 20 20 18 17 7 5 5 6 5 4 4 2 -0 -3 -5 -6 -9 -14 -15 -16 -15 -16 -16 -16 -16 -16 -16 -16 -16 -16 -16 -16 -16 -16 -16 -16 -16 -16 -16 -16 -16 -15 -14 -13 -15 -16 -16 -16 -16 -16 -15 -14 -13 -13 -14 -15 -15 -14 -14 -14 -12 -4 0 1 3 1 -10 -4 1 4 3 3 12 6 -9 2 13 2 10 15 2 9 15 15 17 16 20 13 14 11
336 318 321 313 302 300 308 306 290 303 314 321 315 309 320 326 327 322 313 313 314 311 311 320 317 329 335 332 343 349 363 355 361 372 373 377 363 353 343 329 335 338 351 359 361 371 381 397 399 375 362 381 392 412 425 413 398 415 415 416 406 392 407 411 389 395 415 423 412 393 374 393 404 399 379 364 352 356 356 366 373 369 362 369 383 393 379 358 348 329 312 304 305 310 298 286 286 287 291 293 305 311 330 314 314 331 345 356 371 372 360 346 336 345 357 366 378 388 396 398 385 372 360 349 353 357 351 343 338 336 329 328 327 326 334 343 333 322 315 309 307 311 320 325 330 322 325 325 318 319 320 321 317 311 306 309 310 305 318 330 338 329 312 301 291 292 293 291 295 317 332 338 335 322 316 323 326 323 309 322 315 303 295 289 278 268 263 258 258 258 257 256 258 256 257 255 248 246 247 252 259 273 277 278 276 272 271 280 290 295 295 303 292 294 293 283 280 277 271 275 278 281 278 279 293 308 308 311 304 302 303 303 301 299 299 292 294 295 287 289 287 287 285 284 278 267 264 265 259 255 250 247 244 247 247 253 247 247 245 240 239 242 243 241 236 232 229 226 229 232 237 236 225 220 221 221 216 207 201 200 199 196 195 194 196 202 207 208 208 207 206 201 195 197 199 200 202 206 209 214 213 216 220 223 227 230 234 239 244 247 252 255 258 264 265 273 275 272 269 268 266 259 251 254 268 266 257 245 233 229 229 224 217 222 224 209 203 204 194 194 199 219 213 205 193 190 187 184 186 177 170 163 168 174 177 167 168 172 173 169 161 156 155 140 136 127 138 145 139 143 146 153 152 139 132 123 126 123 128 127 125 120 123 122 122 118 111 112 107 106 102 100 101 101 96 94 93 92 90 88 88 89 90 86 82 89 96 100 103 108 113 118 123 126 133 142 146 148 155 165 159 162 160 168 187 208 230 275 369 377 361 323 252 183 151 130 115 104 96 92 86 84 75 68 64 58 60 56 48 47 44 47 43 41 36 39 39 42 48 45 41 38 31 30 26 25 23 20 20 15 9 6 9 9 10 7 5 2 -0 -3 -6 -8 -12 -15 -16 -16 -16 -16 -16 -16 -16 -16 -16 -16 -16 -16 -16 -16 -16 -16 -16 -16 -16 -16 -16 -16 -15 -15 -14 -13 -14 -15 -16 -16 -16 -16 -15 -13 -13 -13 -13 -15 -15 -14 -13 -13 -14 -15 -13 -3 1 4 -4 2 -9 -5 2 4 6 6 2 -1 14 5 9 11 -1 3 8 4 11 13 16 15 14 12
346 320 303 300 292 299 312 311 289 294 305 312 301 307 310 307 305 303 302 301 305 311 316 329 324 333 344 338 346 353 361 363 364 373 373 360 350 336 327 335 344 344 345 354 370 382 389 393 372 360 361 373 391 409 421 412 396 395 394 395 384 377 394 401 382 379 402 410 400 389 371 371 396 401 389 374 345 335 343 334 341 339 338 355 380 395 382 354 334 336 327 332 333 320 306 300 291 288 286 290 296 307 331 328 333 330 343 354 369 363 353 329 325 339 344 354 368 374 389 396 379 367 360 355 346 343 344 336 336 337 338 348 343 341 347 354 346 331 321 316 310 310 314 319 327 323 325 312 311 316 315 320 318 314 311 309 307 305 313 324 336 331 315 304 299 295 295 294 305 321 334 326 313 305 304 304 304 300 306 320 304 282 276 270 267 261 256 253 258 258 257 257 257 249 253 246 245 246 246 258 271 281 285 290 286 279 274 275 287 300 307 304 302 297 289 292 294 282 278 280 285 286 282 279 283 294 306 315 310 302 300 298 297 295 294 291 291 294 284 278 282 279 282 283 269 256 253 256 250 249 250 252 249 245 247 249 249 242 238 236 233 236 241 234 229 225 225 223 221 226 227 228 222 214 211 210 210 206 200 198 195 195 194 194 195 197 199 201 205 206 207 201 195 198 201 202 202 204 207 212 215 217 221 224 227 231 236 241 247 252 253 253 256 257 259 262 272 271 269 265 261 257 264 260 264 261 251 238 238 243 233 223 226 231 225 218 209 204 197 203 204 212 216 201 188 181 175 179 179 175 171 162 159 166 167 164 165 162 163 169 158 154 143 144 141 131 142 150 149 159 155 155 147 140 130 128 133 128 134 134 126 122 127 122 119 116 113 122 118 113 106 103 100 97 100 101 96 93 91 93 92 96 92 87 85 86 95 100 103 110 114 120 125 130 136 141 150 155 161 168 164 168 169 172 186 203 232 274 351 381 370 333 304 203 146 126 112 103 96 88 83 78 72 68 63 64 58 53 56 52 47 49 43 42 40 40 44 52 58 53 51 50 49 37 32 37 30 28 25 21 11 8 11 13 11 9 6 2 -1 -4 -6 -9 -15 -16 -16 -16 -16 -16 -16 -16 -16 -16 -16 -16 -16 -16 -16 -16 -16 -16 -16 -16 -16 -16 -16 -16 -16 -14 -13 -13 -13 -14 -16 -16 -16 -15 -13 -13 -13 -13 -13 -14 -14 -14 -13 -14 -15 -14 -15 -15 -7 4 2 10 4 -8 -7 -4 3 9 10 5 12 4 5 15 13 9 10 7 -1 1 12 13 13 14
335 330 310 298 294 309 315 319 293 290 295 301 294 300 301 305 300 300 304 305 306 314 326 335 332 335 339 349 339 358 368 372 370 369 362 347 337 326 321 326 327 341 356 362 376 378 390 372 358 354 365 378 398 419 423 409 392 375 373 373 367 368 375 373 369 368 387 392 396 388 374 367 362 374 371 348 353 378 365 350 330 339 325 339 371 385 380 367 357 362 344 333 324 315 320 308 286 282 284 290 293 294 320 335 334 339 349 355 350 340 333 320 322 322 328 344 359 380 395 407 401 383 381 377 364 358 359 342 346 350 362 368 356 355 356 362 348 337 335 326 319 311 308 314 317 321 329 321 315 312 311 317 314 311 312 316 309 303 308 317 323 322 318 306 294 293 293 293 310 322 325 311 301 292 288 290 290 295 305 307 303 276 265 256 254 252 254 258 258 257 256 258 258 249 248 245 246 248 252 260 278 285 291 295 299 291 284 278 290 298 307 302 305 300 299 304 307 288 282 287 292 294 287 287 290 300 309 311 302 296 294 287 291 289 282 290 285 286 283 270 271 270 279 274 257 248 249 252 248 251 251 251 245 240 240 242 244 243 239 234 227 230 237 238 230 226 219 216 215 217 218 219 219 218 216 208 202 203 200 201 198 195 194 193 192 194 197 200 202 205 206 204 199 198 201 204 206 205 208 211 215 218 223 226 230 232 236 240 243 247 251 253 251 253 254 256 264 267 272 269 267 265 267 265 269 257 246 248 256 244 230 234 242 231 223 222 217 211 202 212 212 212 214 194 185 179 174 170 168 167 165 166 161 158 156 154 162 155 156 162 153 147 141 133 132 138 150 164 161 160 166 157 151 140 143 146 138 139 140 137 127 127 131 127 122 118 120 127 123 111 107 109 106 100 109 111 102 96 98 100 97 100 95 96 91 86 92 99 106 113 118 123 128 131 136 140 144 150 156 164 169 174 176 177 189 203 224 254 303 318 322 284 282 216 158 132 119 109 102 97 91 78 72 68 70 61 56 62 58 54 49 53 50 48 43 43 48 63 56 50 48 50 53 49 46 42 42 37 31 31 21 17 15 14 13 9 5 2 -2 -4 -7 -10 -15 -16 -16 -16 -16 -16 -16 -16 -16 -16 -16 -16 -16 -16 -16 -16 -16 -16 -16 -16 -16 -16 -16 -16 -16 -15 -14 -13 -13 -13 -15 -15 -14 -13 -13 -13 -13 -13 -13 -14 -14 -14 -13 -8 -11 -15 -15 -15 -12 4 3 10 15 6 3 -4 -7 -4 -1 1 5 5 2 2 14 18 18 19 11 7 7 10 13 13
312 314 305 298 300 317 328 325 300 289 290 293 297 300 301 296 299 305 307 313 308 313 321 336 335 345 343 353 350 361 360 358 360 350 347 334 330 322 312 322 323 329 336 350 354 364 368 357 344 355 363 377 391 403 419 410 390 380 367 367 366 365 370 377 367 360 372 373 391 402 396 386 378 363 346 349 365 391 385 369 361 342 318 333 357 370 386 383 373 360 359 344 328 307 297 290 281 283 287 293 290 299 318 327 317 323 330 336 328 326 313 304 308 321 338 348 364 377 385 396 410 400 380 366 364 358 348 344 345 348 371 372 375 365 359 349 334 323 320 325 320 311 306 313 309 314 326 330 312 310 313 317 312 309 314 309 310 307 313 321 322 316 319 320 308 305 293 289 295 311 313 300 299 287 277 272 277 282 287 295 285 269 260 254 251 257 257 255 259 259 259 260 257 243 253 253 257 260 258 262 271 280 288 292 298 300 298 292 292 301 299 303 308 310 305 309 300 288 291 299 305 302 299 303 301 304 307 298 289 283 281 287 289 285 277 287 284 277 278 264 257 266 261 253 251 249 247 241 243 248 254 248 248 243 237 234 233 238 242 236 229 224 230 233 236 229 225 223 219 214 211 215 223 225 219 211 204 197 195 194 193 192 192 193 191 191 192 195 197 201 202 205 202 203 203 203 205 210 211 213 216 219 222 226 231 233 235 238 241 246 249 250 248 245 248 249 254 268 273 272 271 269 271 276 267 257 258 262 251 241 239 251 250 237 226 222 213 208 206 214 217 211 203 191 181 176 176 173 176 175 168 165 167 163 162 158 151 150 145 147 147 139 135 138 137 147 160 185 179 176 174 163 161 145 152 169 157 157 144 140 132 137 135 128 124 130 128 122 114 111 109 107 103 100 105 115 109 101 107 110 102 106 104 95 91 88 93 103 108 113 117 118 124 131 135 140 146 150 155 161 169 178 183 182 187 198 217 238 266 281 280 258 213 192 154 138 125 113 102 92 81 78 76 74 76 67 66 63 59 54 52 59 57 52 48 46 57 57 56 53 49 45 41 43 36 34 32 31 30 25 21 18 18 16 14 10 6 2 -2 -4 -7 -10 -15 -16 -16 -16 -16 -16 -16 -16 -16 -16 -16 -16 -16 -16 -16 -16 -16 -16 -16 -16 -16 -16 -16 -16 -16 -16 -15 -14 -13 -13 -14 -15 -14 -13 -13 -13 -13 -13 -13 -14 -9 -14 -13 -4 -12 -15 -15 -14 -12 4 -8 -5 12 16 16 14 5 -2 -6 -7 -3 -1 -1 -3 -1 4 7 13 14 11 13 14 16 16
293 301 292 295 305 322 330 318 311 305 289 291 295 300 298 295 297 302 313 318 315 313 311 319 327 342 347 339 342 353 350 343 345 347 331 327 319 313 308 315 320 330 337 340 342 345 340 338 343 357 365 365 376 393 416 420 410 387 368 359 361 351 361 379 374 358 353 364 374 387 404 393 377 363 358 365 382 385 377 372 361 338 317 314 345 346 355 373 381 374 352 340 325 314 299 284 279 283 287 291 292 310 313 306 297 308 320 325 313 302 298 298 303 326 350 351 355 375 381 397 407 407 394 377 358 357 357 356 346 349 372 375 367 360 340 328 325 318 307 310 313 307 309 311 306 309 314 306 303 309 308 310 309 313 313 307 307 302 309 312 311 309 308 307 303 295 291 289 283 302 307 296 289 280 277 271 270 264 278 277 266 260 253 255 253 258 257 264 268 265 267 265 254 257 260 260 263 261 261 260 260 270 279 282 285 295 308 307 299 300 304 316 322 315 309 305 296 294 302 311 312 312 313 313 311 310 304 296 290 279 273 280 276 272 270 280 277 267 270 260 250 250 246 246 250 254 247 244 241 246 249 249 249 248 246 242 238 233 232 238 234 224 227 233 236 232 232 229 228 222 213 210 212 218 217 213 206 199 196 195 192 189 191 192 191 191 186 190 193 196 198 203 206 207 210 209 206 210 216 218 218 222 225 228 230 232 233 237 239 243 245 244 243 241 243 248 256 263 269 275 274 274 279 274 266 271 272 263 253 253 256 258 246 239 236 230 219 221 211 209 204 201 194 188 181 175 170 167 165 166 159 154 154 151 152 150 146 144 142 140 139 140 141 141 146 147 154 172 180 186 178 162 162 154 153 175 185 174 157 147 145 143 144 143 142 137 129 123 118 118 114 109 105 104 107 113 110 108 116 110 108 107 97 94 98 90 95 103 105 111 114 116 124 129 134 139 146 153 156 162 171 172 176 186 192 202 213 230 253 255 233 234 224 187 147 124 118 110 102 88 83 82 75 81 81 72 67 63 58 55 61 68 67 56 51 47 57 61 63 54 49 43 41 40 39 36 33 30 27 26 23 20 18 15 13 10 6 3 -0 -2 -6 -10 -14 -16 -16 -16 -16 -16 -16 -16 -16 -16 -16 -16 -16 -16 -16 -16 -16 -16 -16 -16 -16 -16 -16 -16 -16 -16 -16 -15 -14 -14 -14 -14 -13 -13 -13 -13 -13 -13 -14 -14 -12 -14 -12 -4 -10 -15 -6 -7 -14 4 -2 -10 -3 12 14 16 14 13 13 7 1 4 4 3 1 3 3 3 5 6 3 4 6 5
295 290 294 305 313 322 314 309 308 310 297 289 292 296 305 300 297 296 305 313 311 306 304 309 318 329 334 324 334 338 347 337 334 341 324 310 306 309 313 310 308 312 318 320 322 325 327 333 344 349 354 368 382 398 412 416 403 388 374 371 363 349 346 351 366 365 346 361 361 375 394 392 393 384 373 380 382 364 353 341 333 321 311 311 333 331 358 367 366 368 357 345 331 319 300 282 277 281 284 287 293 303 293 284 286 306 301 302 294 293 308 319 324 334 328 347 358 357 376 389 395 401 400 385 375 375 365 368 347 350 363 373 367 343 326 332 337 322 325 330 324 309 310 308 304 308 310 304 305 308 303 305 311 318 319 312 304 295 305 298 303 300 289 294 294 292 289 285 279 284 290 285 280 278 278 272 270 272 274 271 263 257 250 251 258 258 262 268 270 263 265 265 263 265 268 268 267 259 260 259 259 268 276 283 286 293 297 302 292 295 305 324 326 321 314 305 296 300 310 310 313 315 308 308 304 302 298 296 290 284 270 265 263 259 259 268 270 264 255 247 239 242 247 249 245 248 251 251 248 241 241 246 250 245 244 247 245 235 227 228 231 225 221 228 229 234 229 228 224 219 216 214 209 206 208 213 212 206 200 193 193 189 191 191 190 189 187 187 190 194 200 202 207 208 212 215 209 211 215 221 224 227 229 231 233 231 232 234 237 242 245 243 239 237 241 248 253 252 260 274 272 278 280 277 276 275 277 267 266 267 266 258 255 253 244 226 220 216 209 204 195 189 185 183 177 173 170 167 161 158 158 158 155 150 148 145 146 146 142 144 142 143 143 149 157 165 165 165 173 185 173 176 174 168 166 188 176 167 171 162 161 155 150 148 145 140 139 133 128 128 125 114 111 113 116 121 118 117 121 114 115 108 101 99 93 92 98 103 106 111 115 118 122 128 132 137 144 151 157 168 176 180 181 182 193 201 213 224 236 233 223 215 207 197 188 130 110 102 95 90 86 89 82 86 80 71 66 62 59 57 60 69 64 54 51 52 65 66 58 57 52 46 44 44 41 41 41 35 35 30 25 21 19 16 14 9 5 3 1 -2 -6 -11 -15 -16 -16 -16 -16 -16 -16 -16 -16 -16 -16 -16 -16 -16 -16 -16 -16 -16 -16 -16 -16 -16 -16 -16 -16 -16 -16 -16 -16 -15 -14 -13 -13 -13 -13 -13 -13 -14 -14 -14 -12 -13 -7 -2 -0 -2 -2 -5 -14 3 7 -6 -12 -5 6 6 7 7 8 15 17 15 15 13 4 2 4 -2 -2 -1 0 1 2 4
310 306 308 306 307 313 308 299 297 301 305 286 289 297 304 302 301 294 296 295 297 305 299 300 310 315 322 314 319 321 328 320 325 324 311 303 306 311 322 316 314 314 319 322 325 323 334 347 357 365 361 367 385 403 405 408 407 393 388 382 367 368 361 345 334 345 342 347 349 370 375 373 378 381 383 390 382 358 352 348 338 327 315 305 310 332 353 362 348 350 341 334 332 313 294 283 280 281 282 286 286 282 281 284 285 291 284 288 287 293 318 339 341 347 336 336 351 370 374 381 391 384 395 396 392 387 379 379 357 368 368 362 346 336 346 353 334 343 346 330 313 313 308 311 310 314 310 307 306 305 305 310 325 329 322 313 304 295 305 300 303 300 292 288 297 300 287 285 280 275 275 274 272 267 265 263 260 266 270 271 269 259 259 257 260 263 264 263 266 269 261 259 259 264 270 275 273 261 259 259 258 261 270 277 281 291 291 284 288 299 310 319 324 324 318 309 303 310 314 319 315 310 305 302 300 293 289 289 284 273 264 273 268 260 252 260 265 253 245 239 239 241 245 245 247 250 255 255 247 241 235 239 246 238 242 241 240 240 234 228 222 221 215 219 223 227 228 222 228 224 222 218 209 204 200 201 208 203 199 194 194 189 192 196 190 189 191 192 192 192 197 201 202 206 214 213 212 217 218 219 225 231 230 230 230 229 230 232 236 239 242 241 236 234 238 249 249 250 255 258 260 271 271 272 277 276 272 266 266 267 259 255 243 235 230 233 224 210 203 199 197 191 188 183 177 171 167 164 162 163 160 156 155 153 151 151 150 144 146 152 146 145 146 148 157 166 161 161 172 165 154 165 162 173 177 175 167 166 166 167 157 146 144 135 132 128 129 126 124 126 125 125 124 128 122 131 122 117 119 121 113 112 105 97 97 97 98 103 107 111 114 119 123 127 131 137 146 158 165 171 178 186 189 190 194 199 210 219 218 214 200 187 167 163 163 140 110 106 100 93 98 96 87 80 76 77 70 66 63 61 67 72 63 57 56 61 70 64 66 63 56 49 47 47 47 47 42 37 32 28 25 21 18 16 13 10 6 3 0 -3 -7 -11 -15 -16 -16 -16 -16 -16 -16 -16 -16 -16 -16 -16 -16 -16 -16 -16 -16 -16 -16 -16 -16 -16 -16 -16 -16 -16 -16 -16 -16 -16 -15 -15 -14 -14 -14 -14 -14 -14 -14 -14 -5 -13 -7 -2 -1 -1 -2 -1 -8 0 5 -2 -8 -8 -1 1 2 0 1 4 4 7 10 7 3 -1 -3 3 3 2 3 3 1 2
309 312 303 304 310 315 310 302 304 310 295 279 293 305 309 304 311 303 298 294 300 304 294 297 299 313 307 302 303 310 306 310 311 303 302 307 309 315 323 330 319 321 320 329 337 334 329 333 339 357 362 365 376 390 399 404 402 403 400 392 387 377 360 346 338 329 325 324 335 348 355 350 356 366 377 385 371 354 342 327 319 323 313 302 305 329 343 349 333 329 332 313 317 319 300 285 281 281 283 283 282 283 283 284 286 286 293 297 299 298 311 318 343 355 346 357 357 364 380 391 387 374 387 391 390 387 384 387 378 375 374 362 343 339 359 357 350 343 339 331 313 318 308 320 318 326 316 305 299 303 314 327 336 324 309 302 303 303 303 303 295 295 302 300 299 289 296 306 291 272 274 271 272 272 270 271 270 268 267 257 254 258 262 263 262 262 262 265 271 254 256 255 262 266 270 284 275 265 263 260 262 262 265 269 274 281 284 286 290 299 308 318 317 319 316 313 317 320 322 319 316 309 306 304 301 295 290 284 274 271 274 282 275 260 248 243 247 240 236 241 245 244 243 244 243 243 249 246 249 241 237 236 234 233 244 243 238 236 239 229 223 216 210 211 216 220 224 221 219 225 224 221 216 211 203 196 201 199 192 195 189 188 193 197 192 189 191 191 196 194 191 197 199 204 210 212 215 219 221 222 225 227 226 229 228 227 228 229 231 235 236 237 235 230 234 241 244 245 250 248 248 255 259 269 278 276 272 272 264 256 251 250 247 241 243 236 219 224 209 200 201 192 183 177 172 169 167 167 168 167 163 165 163 159 157 153 148 147 144 144 147 142 141 148 155 163 153 149 150 148 143 155 154 153 165 165 158 149 152 162 160 149 140 132 130 127 120 118 117 116 114 114 116 122 118 121 114 108 108 113 108 101 98 95 104 102 97 102 105 109 114 119 124 129 133 140 148 157 163 169 174 185 189 194 199 198 204 210 216 217 219 196 185 169 146 128 120 111 103 101 105 98 89 85 86 82 80 74 70 71 79 80 67 66 64 77 76 75 69 62 56 52 56 53 47 43 39 35 32 27 24 21 16 15 11 9 6 3 -0 -4 -7 -9 -14 -16 -16 -16 -16 -16 -16 -16 -16 -16 -16 -16 -16 -16 -16 -16 -16 -16 -16 -16 -16 -16 -16 -16 -16 -16 -16 -16 -16 -16 -15 -15 -15 -14 -14 -14 -14 -14 -14 -14 -13 -14 -9 -2 1 3 1 1 -3 -0 5 7 1 3 -1 -4 2 -0 0 3 -0 1 2 2 2 2 3 4 4 3 6 8 4 5
316 310 303 307 314 315 305 306 306 312 284 290 298 312 313 318 325 305 297 293 307 309 301 296 300 303 297 297 303 301 302 304 307 304 300 306 313 319 321 338 326 328 326 332 344 346 337 344 348 342 357 370 384 394 395 386 384 383 382 387 389 383 367 369 354 344 327 316 317 329 337 347 337 341 353 368 377 355 338 346 338 335 329 315 292 306 316 327 326 307 318 305 302 310 307 298 279 276 278 280 282 292 291 292 292 284 283 304 326 327 326 329 334 353 353 365 362 361 376 375 372 378 385 388 383 378 375 382 378 377 378 366 356 354 358 366 364 358 346 335 333 325 324 328 338 345 329 313 312 322 323 331 331 317 306 303 302 300 299 301 296 297 302 309 295 292 292 301 293 286 278 270 270 268 270 272 269 266 266 260 263 268 269 269 266 260 256 266 264 252 253 258 261 277 280 282 285 272 266 264 263 263 264 261 271 278 280 282 290 296 301 306 313 318 321 321 324 324 319 315 312 309 306 303 300 297 289 277 268 275 279 273 271 259 247 238 239 235 245 241 244 245 244 247 247 243 241 245 248 247 246 238 230 229 231 238 242 232 234 233 226 215 209 205 208 215 218 222 217 221 218 218 213 214 207 196 195 193 191 194 189 190 193 192 190 191 191 190 194 196 193 194 197 202 208 213 218 221 225 225 225 224 222 224 226 227 230 226 227 230 233 232 233 229 229 234 240 242 245 240 242 254 256 263 264 274 276 270 265 264 263 258 245 239 232 228 229 225 212 206 200 196 184 177 174 170 170 172 173 173 170 166 159 154 152 149 149 146 138 135 134 133 132 138 144 146 143 139 141 139 135 144 144 148 156 152 151 147 147 152 151 146 139 134 129 124 121 124 120 122 117 113 113 109 109 109 108 103 103 102 100 99 101 101 98 97 98 103 107 113 115 119 127 131 139 142 147 153 158 164 173 182 180 186 186 189 197 209 224 226 213 207 200 183 161 137 126 121 113 109 98 92 94 99 92 98 97 88 80 86 92 89 81 74 74 75 72 68 62 58 57 59 56 52 47 43 39 36 33 25 23 20 17 16 13 11 7 4 1 -3 -8 -11 -15 -16 -16 -16 -16 -16 -16 -16 -16 -16 -16 -15 -16 -16 -16 -16 -16 -16 -16 -16 -16 -16 -16 -16 -16 -16 -16 -16 -16 -16 -15 -15 -15 -14 -14 -14 -14 -14 -14 -14 -14 -14 -11 -11 -13 -11 -6 3 -3 -9 1 2 3 8 8 -3 -3 -0 2 6 2 2 3 4 4 3 3 3 2 3 5 10 8 5
309 301 304 311 315 312 305 313 312 288 289 294 305 317 311 318 317 311 300 295 301 300 298 293 294 292 299 292 296 297 299 310 321 309 297 305 307 320 329 336 336 332 336 333 346 355 347 342 347 349 363 383 390 391 387 381 370 358 360 365 369 363 374 371 356 341 324 311 301 305 319 332 339 349 344 366 380 372 354 349 336 327 313 294 288 283 287 313 319 302 301 294 293 297 292 283 278 275 277 279 283 294 302 307 287 287 306 301 313 324 335 343 341 349 359 370 375 372 367 349 351 373 377 370 374 368 370 371 368 373 373 364 366 368 367 370 370 365 352 348 343 342 343 343 347 347 335 319 326 315 301 302 297 296 290 294 297 296 291 295 299 307 308 299 288 292 297 295 291 287 272 274 278 275 272 266 263 269 270 272 270 268 267 264 262 258 260 269 271 264 260 258 257 268 280 293 295 281 272 268 260 265 264 268 272 274 283 286 288 296 306 311 314 320 320 319 321 318 311 309 306 306 302 300 296 286 276 272 272 274 272 261 256 251 247 240 235 234 243 248 248 243 239 245 242 242 239 244 243 247 251 246 241 236 230 226 230 224 221 221 219 216 211 207 202 208 214 214 211 218 215 211 208 206 201 196 193 193 192 192 185 189 189 190 189 189 188 189 191 193 195 198 200 201 207 213 218 223 230 226 221 218 219 220 222 226 226 225 224 227 231 229 229 227 225 230 235 235 234 235 241 250 250 250 253 260 268 269 267 262 256 251 253 252 238 240 244 226 211 201 195 191 185 179 175 172 178 180 175 170 162 158 158 155 157 154 153 147 139 134 131 129 128 130 131 131 135 131 132 132 131 137 135 139 146 151 142 141 143 144 139 139 137 138 140 135 129 132 131 125 120 118 113 111 107 104 104 102 102 104 101 105 108 105 101 101 99 103 109 114 119 123 133 137 141 146 152 160 164 165 174 181 175 179 177 186 195 206 212 220 208 207 188 169 158 144 132 120 109 101 98 106 112 114 107 114 115 104 94 88 87 85 82 77 71 69 67 66 66 65 63 60 57 52 47 42 38 37 32 27 25 21 20 18 14 11 7 6 3 -3 -11 -15 -16 -16 -16 -16 -16 -16 -16 -16 -16 -16 -16 -15 -15 -16 -16 -16 -16 -16 -16 -16 -16 -16 -16 -16 -16 -16 -16 -16 -16 -16 -16 -14 -11 -14 -14 -14 -14 -14 -14 -14 -14 -14 -5 -13 -13 -13 -13 -6 -8 -12 -4 11 12 10 15 16 11 6 10 15 15 13 14 12 13 12 10 13 12 8 -4 4 13 7
302 301 310 323 310 305 310 319 311 275 290 296 303 309 309 307 301 300 294 296 296 302 302 309 295 298 307 298 295 295 305 318 325 316 310 307 307 313 318 327 339 345 348 338 344 362 363 353 360 363 366 380 377 379 372 375 372 353 344 341 355 346 365 371 360 338 319 308 302 305 327 339 352 369 361 357 372 354 353 326 315 306 299 301 291 285 276 283 293 292 287 284 285 296 282 278 279 275 274 276 279 281 297 311 293 288 297 314 321 331 344 348 354 356 355 354 375 377 365 345 350 358 348 355 362 356 363 367 364 363 364 360 368 367 368 367 363 355 334 336 330 331 327 332 330 335 328 314 304 298 298 295 295 292 290 291 291 292 293 294 294 302 303 297 293 293 292 295 285 287 285 276 275 272 275 283 279 269 266 266 266 269 267 259 257 252 261 271 279 274 267 263 262 266 275 289 296 287 281 274 266 269 269 270 273 276 277 280 287 293 299 302 309 318 319 318 313 305 303 307 309 306 298 292 286 277 273 276 273 272 268 263 254 250 250 245 237 230 235 242 247 239 233 238 240 235 238 242 240 244 247 245 241 240 235 230 225 221 221 213 209 206 204 204 201 203 204 205 205 210 211 209 209 204 201 200 191 192 191 186 186 188 188 190 187 186 188 186 188 194 196 199 202 202 204 211 216 221 226 224 222 218 217 219 219 220 221 222 222 225 230 229 225 225 222 226 231 228 232 237 239 243 245 243 244 250 256 273 270 271 268 260 256 258 251 249 251 230 222 206 201 195 187 181 180 178 183 172 165 165 164 163 160 158 162 157 154 147 136 132 128 127 127 126 125 125 126 125 126 128 129 127 130 135 143 141 138 136 138 141 139 132 132 131 141 140 138 133 128 125 120 113 112 106 105 105 105 108 106 111 108 105 109 112 105 105 103 100 103 110 120 130 136 140 143 145 150 156 156 159 170 177 169 171 179 190 198 203 200 202 198 187 190 176 166 166 161 130 119 109 110 126 132 127 117 108 103 99 95 99 98 92 84 78 76 79 78 74 70 66 63 58 53 49 44 40 37 36 31 28 25 23 21 17 13 10 7 5 2 -6 -13 -15 -16 -16 -16 -16 -16 -16 -16 -16 -16 -16 -16 -16 -16 -16 -16 -16 -16 -16 -16 -16 -16 -16 -16 -16 -16 -16 -16 -16 -16 -16 -16 -12 -10 -14 -14 -14 -14 -14 -14 -14 -14 -15 -8 -10 -13 -7 -9 -2 -3 -5 -12 -9 4 10 10 16 21 19 16 9 14 14 12 12 14 12 6 8 11 14 8 -2 11 10
288 295 300 305 297 301 310 307 312 289 289 300 312 315 317 308 304 298 295 302 295 304 313 307 295 299 308 309 311 305 302 305 316 325 320 313 314 318 325 331 340 355 363 356 353 373 386 376 380 384 384 379 366 361 362 358 360 357 336 326 335 335 352 344 347 332 317 309 303 302 314 332 343 356 377 370 365 342 326 313 310 306 312 303 290 295 285 277 285 280 275 274 273 271 272 269 266 268 276 280 280 281 291 306 311 297 287 306 321 322 337 352 363 353 333 349 363 364 364 350 331 342 337 351 344 347 357 355 352 360 357 351 358 360 360 359 353 345 332 324 313 311 307 304 306 308 299 297 302 298 298 300 300 300 297 291 293 295 298 293 298 295 291 295 291 288 282 288 284 278 277 277 278 274 275 283 284 269 267 267 266 264 265 258 245 247 256 265 276 278 272 272 271 268 274 284 297 294 289 277 279 276 275 276 281 285 279 280 285 289 293 298 310 319 317 310 303 299 302 306 309 301 295 291 290 282 280 278 274 271 267 260 251 251 246 240 235 231 228 238 246 233 232 237 233 231 237 235 233 236 239 241 237 236 235 230 226 218 220 210 203 203 205 201 199 203 200 198 201 206 205 205 209 206 201 201 195 188 191 183 186 187 188 189 191 190 189 188 185 190 195 199 203 204 202 206 211 212 217 221 217 214 214 216 220 222 222 229 224 221 227 229 225 221 220 222 227 225 229 232 237 236 235 238 239 245 254 268 266 262 264 267 263 265 261 266 254 241 227 212 202 192 188 187 188 184 175 171 168 171 168 162 164 164 157 150 148 143 137 131 128 128 126 123 123 122 120 121 121 123 124 125 130 131 133 133 134 135 132 134 133 134 128 125 132 137 133 128 125 120 117 115 110 105 107 109 114 115 112 116 114 111 111 116 112 110 108 102 102 108 121 128 133 135 139 141 147 155 160 164 168 168 163 170 177 185 190 196 197 196 194 196 191 177 173 180 169 152 148 132 130 131 126 117 116 119 114 107 107 109 100 90 86 87 85 81 77 73 71 66 62 58 54 50 45 41 37 34 32 28 26 28 29 23 17 11 6 3 0 -6 -10 -14 -15 -16 -16 -16 -16 -16 -16 -16 -16 -16 -16 -16 -16 -16 -16 -16 -16 -16 -16 -16 -16 -16 -16 -15 -15 -16 -16 -16 -16 -16 -16 -12 -10 -14 -14 -14 -14 -14 -14 -14 -14 -14 -14 -8 -8 -7 -5 4 -2 4 -4 -12 -12 -7 -4 9 12 22 21 13 14 18 18 18 16 17 -2 1 3 5 12 2 8 11
297 300 309 307 302 310 306 306 311 294 286 306 315 322 316 310 303 304 305 314 304 313 315 301 303 301 303 312 316 315 316 316 320 329 319 316 322 332 330 343 358 371 384 381 376 389 390 381 374 371 376 367 355 348 342 338 341 348 352 336 322 329 345 330 334 335 316 308 302 321 319 326 346 367 383 383 358 341 324 322 323 325 315 304 301 298 290 290 291 282 277 274 273 272 270 268 272 273 283 288 279 286 297 300 312 317 300 289 298 315 333 348 354 340 332 334 344 352 358 349 330 342 330 333 337 347 337 337 352 360 352 335 344 354 353 349 353 346 339 340 328 326 325 315 320 307 312 311 300 296 301 315 314 305 293 297 308 317 305 296 283 287 285 279 287 287 283 280 277 276 282 279 280 272 274 278 272 270 262 260 260 260 264 262 248 243 258 262 272 279 283 281 278 275 282 283 294 303 298 296 290 287 285 284 285 288 287 285 287 291 294 295 307 313 308 300 297 294 296 303 302 291 289 289 287 279 280 275 271 268 263 253 252 250 245 241 243 241 228 229 240 232 225 225 226 235 232 227 233 239 236 238 238 238 237 233 224 223 217 208 205 207 208 202 205 202 199 197 197 199 201 200 209 204 200 198 192 187 191 181 185 187 189 191 192 193 191 191 187 187 190 194 196 200 200 200 204 207 211 214 217 217 215 214 214 216 218 222 220 220 222 226 224 219 217 219 221 225 227 227 232 235 232 233 240 245 251 255 260 249 257 258 264 270 270 270 259 257 234 214 202 196 196 195 186 182 179 177 173 175 168 167 166 156 152 147 142 139 137 133 127 127 126 123 121 120 120 120 120 120 123 121 125 127 123 124 123 126 128 127 124 127 126 122 126 127 130 126 121 119 115 109 107 107 110 116 114 117 119 121 120 117 121 116 124 116 109 104 107 112 119 126 130 133 136 146 151 158 163 169 166 162 160 171 182 185 177 182 194 208 220 221 217 206 196 191 181 163 155 142 134 130 129 131 129 126 122 119 116 109 102 101 98 99 88 81 77 73 70 66 62 59 55 50 45 42 40 41 36 31 29 35 36 28 23 19 10 8 0 -4 -7 -10 -10 -15 -16 -16 -16 -16 -16 -16 -16 -16 -16 -16 -16 -16 -16 -16 -16 -16 -16 -16 -16 -16 -16 -13 -13 -16 -16 -15 -16 -16 -16 -14 -13 -15 -14 -14 -14 -14 -15 -15 -16 -15 -15 -15 -13 -3 0 7 -1 -6 -9 -8 -8 -11 -1 3 3 14 17 18 16 14 14 13 14 16 5 -5 1 2 4 2 3 4
297 308 318 312 308 310 313 305 286 282 294 308 317 316 309 302 299 303 307 309 307 312 307 300 306 308 304 306 312 307 309 319 324 331 324 324 337 352 346 358 372 374 375 383 389 393 376 358 349 352 366 374 376 363 354 340 330 326 337 333 319 322 337 341 323 328 321 306 303 323 336 332 352 364 373 371 374 348 332 327 343 334 327 309 304 299 294 297 291 289 281 282 277 273 269 270 274 275 280 280 272 279 287 290 303 312 319 305 312 311 325 341 341 328 320 336 352 332 340 328 329 330 320 337 347 337 323 336 346 340 334 327 337 346 340 348 348 348 348 344 340 341 337 326 313 309 312 303 302 309 302 321 318 294 289 305 316 316 297 287 281 283 283 275 274 282 274 281 282 283 280 277 275 273 268 268 263 258 259 259 257 257 259 260 255 256 263 269 276 281 289 293 290 287 292 292 300 311 310 304 300 298 296 295 297 294 295 293 292 295 301 304 303 306 303 297 290 290 295 292 287 288 287 285 284 279 278 270 266 262 254 244 243 246 249 243 245 242 231 225 236 230 219 218 228 235 224 231 236 233 235 234 238 242 238 231 227 225 223 212 211 210 208 203 208 204 204 201 197 195 192 193 202 206 200 193 189 188 185 178 184 187 187 189 190 193 193 190 192 190 189 193 192 193 198 197 201 204 208 213 218 219 217 213 213 213 215 217 219 222 220 219 218 217 214 216 220 219 220 224 223 225 232 238 243 247 248 241 243 240 243 244 256 265 268 261 254 261 241 219 212 202 204 195 190 186 181 184 180 174 170 175 164 157 148 145 140 142 140 136 128 126 125 124 121 122 124 120 117 118 118 120 120 118 117 117 118 121 127 129 127 119 122 119 116 119 116 116 112 110 113 113 114 109 111 116 122 122 128 130 124 125 124 119 124 120 113 109 109 115 119 123 128 131 139 146 152 156 160 166 166 161 157 171 173 175 165 169 182 198 215 220 212 210 203 186 174 154 147 141 139 133 122 121 125 125 125 120 117 113 110 105 103 96 85 80 76 72 69 65 62 58 55 51 47 45 46 44 40 34 33 33 36 34 27 24 22 13 5 0 -4 -7 -5 -12 -16 -16 -16 -16 -16 -16 -16 -16 -16 -16 -16 -15 -15 -16 -16 -16 -16 -16 -16 -16 -16 -9 -9 -12 -12 -11 -15 -16 -16 -15 -15 -16 -15 -15 -15 -15 -16 -16 -16 -16 -16 -16 -15 -13 -4 10 4 -12 -13 -1 -0 -9 -0 -1 -8 4 7 7 6 6 6 6 5 12 16 10 2 1 5 6 7 9
303 311 328 317 312 313 311 301 276 288 301 314 319 310 304 305 305 299 304 316 310 316 311 307 306 308 303 305 307 302 308 310 314 328 331 331 345 360 363 376 372 360 368 380 389 385 364 345 336 337 346 360 362 364 362 359 344 326 318 313 306 303 316 337 328 311 306 299 307 315 334 339 347 365 358 368 377 356 337 337 352 343 318 310 306 301 301 294 286 288 284 284 281 276 268 266 273 273 273 280 270 270 274 283 289 302 322 328 321 310 314 322 320 311 317 338 348 349 340 326 315 319 315 325 335 325 319 336 338 337 331 318 330 330 331 336 348 348 346 351 350 343 322 321 310 311 305 307 313 319 296 305 317 303 291 300 319 310 295 290 288 286 289 274 271 277 269 273 277 279 276 279 275 269 266 261 267 261 261 260 256 255 257 253 244 251 259 265 275 286 293 306 306 299 292 293 299 307 297 285 283 285 294 300 311 306 307 300 295 302 305 303 301 299 297 294 292 289 285 285 287 285 284 283 280 276 274 264 261 260 247 244 247 237 238 244 242 239 236 224 220 221 225 224 218 217 224 235 233 233 228 230 232 233 227 222 225 221 221 218 217 208 205 208 207 210 206 205 201 195 194 192 193 200 195 193 188 189 179 175 183 185 185 187 191 191 191 191 190 192 190 193 195 192 195 195 200 203 208 213 217 219 217 216 216 215 216 219 218 219 221 221 216 213 212 215 216 214 216 219 225 235 236 236 239 238 242 234 236 240 235 240 250 253 250 249 256 255 239 228 218 213 206 198 193 191 186 186 180 178 175 176 166 157 144 139 134 132 131 131 133 126 124 123 122 122 121 118 116 116 116 116 117 115 113 113 114 119 123 123 128 119 114 114 110 110 108 107 105 106 106 104 108 113 116 118 124 134 137 134 129 126 123 123 121 124 118 109 109 115 119 123 128 134 138 144 146 152 159 165 164 159 154 151 149 148 151 158 173 187 206 218 207 193 184 175 164 152 138 130 126 126 123 116 111 113 115 115 112 110 106 100 94 88 81 77 74 69 65 62 60 60 55 51 50 49 47 44 40 29 36 35 41 37 35 34 25 8 4 1 -5 -6 -6 -11 -16 -16 -16 -16 -16 -16 -16 -16 -16 -16 -16 -14 -14 -14 -16 -16 -16 -16 -16 -15 -15 -9 -5 -8 -9 -12 -16 -16 -16 -16 -16 -16 -16 -16 -16 -16 -16 -16 -16 -16 -16 -16 -16 -15 -14 -7 2 2 -9 -4 1 -2 -2 -3 -0 -0 9 -4 -8 -6 -4 2 1 3 10 14 12 7 12 11 12 10
309 319 332 322 314 309 299 289 277 290 303 314 311 311 304 300 295 298 306 316 315 315 309 312 314 305 304 297 300 316 320 317 312 321 327 338 349 363 376 373 362 347 367 383 383 371 352 337 327 329 330 347 339 348 350 347 349 342 336 325 315 302 299 312 327 315 302 306 311 322 323 335 334 341 357 372 371 360 352 357 347 325 316 311 309 302 298 296 290 287 286 285 275 269 262 260 268 268 278 277 277 266 271 281 291 303 315 313 302 292 297 303 310 300 308 323 328 345 347 346 334 336 319 308 314 310 327 323 327 331 326 318 324 321 323 334 336 334 335 345 346 339 330 333 327 326 318 314 319 309 298 296 310 318 311 297 311 318 309 305 305 290 288 275 269 269 278 280 286 276 263 274 273 272 269 268 267 266 264 261 258 255 253 256 245 249 257 264 272 276 282 291 295 286 286 287 284 287 284 279 278 284 287 298 315 316 309 292 293 308 304 296 293 291 296 291 290 287 287 286 284 279 277 278 272 271 269 268 259 249 244 248 249 247 234 229 227 227 230 226 224 227 238 234 224 214 221 232 231 228 221 225 226 225 227 223 224 216 213 215 214 210 213 213 209 207 206 207 202 199 197 191 187 192 191 190 188 189 180 178 184 186 190 192 195 195 193 191 190 191 189 193 194 193 194 195 199 202 208 213 215 218 220 220 219 218 219 221 219 218 216 218 216 210 209 213 211 211 215 225 228 228 231 233 231 230 229 229 233 236 231 240 246 244 244 246 252 257 246 242 240 233 210 200 196 195 193 188 184 183 177 173 158 148 139 137 137 133 132 131 131 127 125 124 123 122 120 118 116 115 115 114 114 114 112 111 112 116 118 117 119 122 120 114 111 109 107 105 102 104 104 100 102 106 110 115 123 132 139 139 133 129 130 126 123 119 117 109 110 115 118 124 129 133 137 142 148 153 158 163 162 156 153 148 144 142 146 155 166 174 177 199 194 186 176 167 160 145 136 128 124 125 117 114 109 105 102 103 112 106 101 100 94 86 78 74 73 71 67 63 61 61 57 54 52 50 44 40 35 34 37 40 32 30 37 27 16 6 2 -2 -6 -5 -7 -10 -14 -16 -16 -16 -16 -16 -16 -16 -16 -16 -16 -15 -15 -15 -16 -16 -16 -16 -16 -14 -11 -7 -2 -5 -13 -15 -16 -16 -16 -16 -16 -16 -16 -16 -16 -16 -16 -16 -16 -16 -16 -16 -16 -16 -15 -15 -6 9 2 -0 -1 -0 -0 -6 3 3 3 5 1 12 13 6 2 0 5 16 7 -0 10 7 10 3
315 316 330 327 313 310 290 271 285 297 302 298 299 298 294 294 288 293 306 319 317 322 322 320 312 303 304 303 300 309 320 326 316 324 335 337 353 372 375 356 346 344 355 359 360 351 342 326 317 322 330 337 333 325 331 326 344 338 336 336 320 322 306 298 297 295 291 311 318 321 336 339 330 338 359 357 342 350 368 353 339 326 317 312 309 315 310 298 295 289 282 285 277 271 261 266 267 268 265 270 269 267 272 273 286 286 293 295 288 279 285 286 298 294 291 307 317 329 344 350 348 343 332 337 328 304 313 307 313 321 320 310 315 311 314 326 313 316 321 326 333 334 340 342 340 340 339 328 331 317 313 312 311 318 325 317 311 327 334 328 319 309 294 281 275 279 280 288 289 273 270 267 267 270 265 265 266 265 267 264 261 255 254 254 247 245 257 258 259 263 277 284 278 272 278 280 273 275 272 273 277 279 281 294 309 310 297 285 293 296 293 292 289 291 291 289 290 288 283 279 278 279 274 270 268 267 270 263 252 245 251 250 248 242 232 230 234 230 229 223 223 235 239 235 229 218 213 216 217 222 229 231 219 224 223 217 216 213 215 209 210 214 211 203 199 199 201 200 202 201 199 191 189 189 189 187 186 182 176 181 185 186 189 190 191 191 190 189 190 187 188 192 197 197 197 198 201 205 208 210 213 217 220 220 220 221 219 219 218 217 217 215 217 211 207 207 208 216 223 222 222 222 223 225 227 230 224 229 237 231 229 233 238 241 243 242 242 253 251 248 254 243 211 197 190 187 189 186 184 182 172 166 159 146 142 145 145 141 139 138 135 130 130 127 123 120 117 116 116 115 115 116 114 112 112 111 110 111 112 112 110 115 120 120 119 117 114 110 104 101 105 102 99 103 107 115 118 121 127 142 142 140 135 129 123 119 121 116 110 115 120 124 128 132 135 139 144 149 156 160 162 158 153 149 145 140 148 164 172 172 157 161 164 171 163 156 149 142 136 136 136 130 125 120 118 111 102 98 95 104 100 93 89 84 79 78 73 66 66 69 67 63 59 56 53 51 46 42 38 39 42 32 23 25 22 15 10 8 5 -2 -9 -11 -11 -11 -12 -15 -16 -16 -16 -16 -16 -16 -16 -16 -16 -16 -16 -16 -16 -16 -16 -16 -16 -14 -9 -4 -0 -13 -15 -15 -16 -16 -16 -16 -16 -16 -16 -16 -16 -16 -16 -16 -16 -16 -16 -16 -16 -16 -16 -15 -15 4 2 8 6 5 1 2 2 -4 5 4 -1 8 15 12 17 4 4 15 6 -3 4 3 6 5
325 324 327 318 307 309 288 273 293 304 307 305 305 301 292 289 294 289 296 303 317 321 329 326 318 318 312 313 306 312 319 332 322 324 345 354 359 374 371 363 347 336 330 340 348 331 333 328 309 317 312 312 313 309 308 320 332 322 321 343 338 324 315 315 305 298 283 294 313 318 333 330 325 332 341 328 326 339 362 351 333 324 313 310 317 324 306 305 303 298 295 288 281 275 275 268 257 264 259 261 271 277 280 274 270 272 277 286 273 269 271 270 277 281 283 286 300 320 340 339 343 340 326 322 316 312 310 299 295 297 296 307 298 302 316 307 303 310 321 329 319 320 323 329 341 337 330 338 335 330 323 328 328 323 333 330 325 337 336 323 310 312 294 288 289 291 289 296 286 279 277 272 267 267 266 267 264 266 261 263 260 257 256 254 251 245 249 248 252 261 276 272 271 263 267 267 264 268 269 268 269 273 281 285 297 305 289 281 284 288 290 288 286 289 287 289 285 281 279 275 271 273 270 266 266 266 257 251 249 248 251 247 240 235 234 238 239 234 232 229 227 237 241 237 232 225 223 215 210 224 232 221 219 226 226 213 212 217 211 204 204 210 208 206 204 202 196 193 191 192 194 193 191 191 192 191 188 179 177 183 185 187 187 187 186 184 184 184 186 187 189 194 199 200 200 203 206 210 208 206 210 215 219 220 221 221 218 217 216 217 217 214 215 216 212 205 212 217 216 213 214 218 221 222 225 228 224 232 237 238 227 229 236 243 234 233 232 236 235 239 249 247 208 202 191 185 181 174 169 166 162 160 152 146 148 151 150 144 139 137 133 132 134 129 123 119 118 117 117 117 117 118 117 115 113 110 109 109 108 108 107 110 114 113 112 112 114 111 104 99 104 101 98 100 107 111 114 117 117 128 136 140 136 130 122 117 117 121 116 113 117 122 127 130 133 138 143 148 152 158 165 162 156 150 144 139 140 153 155 145 147 151 159 169 161 150 144 141 141 141 134 131 130 126 120 114 108 99 90 93 93 87 85 80 76 73 71 72 70 70 66 63 59 55 54 51 50 40 40 41 33 26 20 19 16 12 9 11 5 -7 -12 -14 -15 -15 -11 -15 -16 -16 -16 -16 -16 -16 -16 -16 -16 -16 -16 -16 -16 -16 -16 -16 -16 -15 -11 -8 -11 -14 -14 -15 -16 -16 -16 -16 -16 -16 -16 -16 -16 -16 -16 -16 -16 -16 -16 -16 -16 -16 -16 -16 -15 -11 2 -1 0 5 5 -0 6 -10 3 3 5 4 4 8 8 2 1 4 11 2 3 3 6 4
336 334 319 305 303 305 281 281 299 314 311 312 310 308 292 297 296 282 289 297 303 308 317 319 325 328 322 318 321 323 323 331 328 330 337 357 369 375 376 370 362 351 330 335 340 319 314 311 300 301 299 297 298 297 300 304 310 316 310 329 325 333 331 325 316 305 287 290 315 329 335 321 322 327 327 318 321 340 360 356 338 329 315 305 304 304 297 292 296 301 302 292 285 274 263 267 266 267 259 262 274 272 276 277 267 264 276 280 274 269 268 271 275 272 273 283 301 315 330 326 343 349 336 324 328 330 317 309 319 305 284 283 284 287 306 301 310 320 320 330 319 320 314 315 330 330 314 313 321 325 323 328 328 332 329 324 338 336 327 316 307 303 298 302 304 304 300 306 289 291 284 276 271 270 271 263 251 256 257 264 258 257 257 257 255 250 249 247 249 255 264 265 260 256 257 257 257 263 263 261 265 270 274 277 291 294 286 276 278 282 284 284 285 289 288 287 281 276 276 270 268 273 271 265 263 256 251 252 250 247 249 244 234 242 238 240 238 239 234 233 234 235 235 236 237 233 228 217 211 208 215 212 210 215 218 215 205 210 205 203 207 207 210 210 205 203 200 196 190 192 198 196 191 192 195 195 190 179 176 184 186 185 184 181 179 180 183 183 183 186 190 196 197 199 202 206 209 210 206 204 208 213 218 219 219 219 216 214 215 215 214 214 214 214 210 203 205 205 209 217 221 223 222 219 220 223 223 227 233 239 225 232 247 249 237 227 227 230 236 243 247 232 214 208 199 197 184 178 172 169 165 161 155 152 156 148 141 140 136 133 131 130 127 126 125 121 119 119 119 117 117 122 121 118 113 111 110 110 110 108 106 105 109 110 110 105 105 108 104 98 100 99 98 101 106 108 105 107 110 113 128 135 133 128 122 117 116 116 119 117 117 123 125 130 133 136 142 146 152 158 164 168 160 152 145 138 133 137 146 141 157 156 152 155 160 149 138 131 132 136 134 128 121 117 116 110 101 98 97 89 87 84 81 78 75 71 68 69 68 67 65 62 60 57 56 54 51 45 40 33 28 23 19 18 16 14 18 19 11 -4 -9 -14 -16 -16 -16 -16 -16 -16 -16 -16 -16 -16 -16 -16 -16 -16 -16 -16 -16 -16 -16 -16 -16 -15 -10 -5 -13 -14 -15 -15 -15 -16 -16 -16 -16 -16 -16 -16 -16 -16 -16 -16 -16 -16 -16 -16 -16 -16 -16 -16 -15 -15 -8 -9 -4 -3 3 3 12 1 -10 3 8 6 4 5 5 3 1 4 8 4 3 3 8 4
344 332 310 304 302 290 280 287 305 316 314 315 307 310 301 296 265 283 299 306 304 300 308 308 313 326 337 335 339 344 342 339 343 343 341 349 362 374 367 357 349 339 324 319 324 317 305 301 305 305 305 312 307 301 301 290 291 297 306 315 306 329 320 313 314 298 286 287 300 310 326 323 308 320 313 315 329 345 356 346 330 330 325 316 300 295 294 294 292 298 290 285 278 267 267 267 261 268 268 264 261 268 267 269 275 262 265 270 267 274 284 278 286 287 288 293 307 322 317 316 330 334 319 317 320 311 303 315 313 299 290 299 306 291 283 285 293 307 317 322 316 310 309 302 318 328 314 306 311 318 319 314 326 321 304 312 332 324 312 312 299 288 289 304 306 293 296 303 295 296 287 279 271 269 270 274 267 256 252 261 256 258 255 254 254 250 243 248 247 250 253 258 251 249 248 249 254 255 255 260 260 263 265 266 269 273 274 272 276 274 276 281 291 290 283 284 278 273 273 268 269 269 263 258 254 249 249 249 245 245 245 238 237 240 237 242 242 235 237 236 238 237 233 236 235 235 229 223 216 208 199 206 204 203 203 206 200 204 208 208 211 201 202 205 204 208 203 198 197 200 200 197 195 193 191 186 187 176 175 182 179 179 179 181 183 185 185 183 181 182 188 194 196 194 198 203 204 206 206 203 205 211 214 215 213 216 215 212 215 219 218 216 217 219 211 201 200 209 221 224 219 216 216 215 219 218 219 223 228 230 221 237 246 246 232 228 236 237 238 234 242 240 229 216 222 213 192 185 185 175 172 166 160 159 157 143 138 136 133 132 131 129 126 124 122 122 121 121 121 119 119 122 122 116 113 112 113 114 114 110 108 106 103 104 103 102 101 100 101 98 97 97 97 99 102 102 100 102 108 107 112 126 130 128 120 115 116 115 116 119 119 118 127 128 131 138 141 146 151 156 162 169 164 155 147 140 134 129 131 132 135 137 141 139 146 140 134 127 123 127 128 126 124 119 114 109 109 108 104 97 93 91 83 77 72 69 67 66 64 61 62 61 60 59 56 55 52 48 46 42 38 27 25 21 21 23 31 27 14 0 -6 -14 -15 -16 -16 -16 -16 -16 -16 -16 -16 -16 -16 -16 -16 -16 -16 -15 -15 -15 -14 -16 -15 -14 -9 -5 -10 -13 -14 -15 -15 -15 -16 -16 -16 -16 -16 -16 -16 -16 -16 -16 -16 -16 -16 -16 -16 -16 -16 -16 -16 -15 -12 -3 -3 -9 -5 6 9 18 -5 -5 7 6 10 19 19 16 7 4 2 4 2 3 5 4
351 332 311 308 309 289 278 296 312 317 314 311 300 303 304 294 268 278 293 298 307 316 311 299 305 321 323 333 333 330 329 332 345 353 362 366 369 374 366 362 353 330 315 311 310 310 306 308 322 309 317 319 306 311 304 291 289 286 296 302 304 321 321 306 296 287 281 296 305 316 332 323 306 320 307 312 321 335 341 328 317 312 314 318 302 292 287 283 284 282 276 273 266 265 262 262 259 258 253 251 256 259 263 265 271 266 261 268 269 269 275 286 300 300 303 302 301 308 303 302 310 314 302 316 321 319 320 316 298 293 303 310 313 306 285 280 286 294 302 313 316 306 299 301 316 322 320 302 301 319 316 297 312 313 292 305 322 319 307 298 300 300 287 292 290 288 299 302 290 288 287 281 275 266 269 270 264 266 258 260 259 255 253 254 253 249 249 249 252 250 250 243 245 244 246 247 249 252 253 253 252 256 259 259 262 268 268 269 272 278 281 288 288 285 279 276 274 275 273 271 261 260 259 251 247 248 249 250 247 247 242 242 239 237 237 242 237 234 231 235 236 233 234 235 231 228 223 222 214 205 201 198 198 199 198 194 191 203 211 212 206 200 200 204 203 206 202 196 198 202 200 199 197 195 188 185 183 172 178 175 175 175 179 182 186 188 181 177 181 184 185 190 194 191 195 197 200 203 207 203 203 208 212 214 212 217 213 213 211 216 219 223 224 230 220 206 198 209 218 221 220 217 211 209 213 212 218 220 220 220 220 235 239 236 231 223 235 245 242 237 235 232 234 229 226 211 194 197 193 187 181 171 167 166 156 143 138 136 134 132 134 132 127 125 123 123 122 123 123 122 119 118 118 114 115 116 114 116 117 114 112 108 103 102 102 101 101 101 100 98 98 97 97 97 97 97 98 100 105 102 106 115 128 125 120 116 118 117 114 115 119 119 123 127 133 136 140 145 149 155 161 167 167 157 148 141 135 130 125 122 119 118 124 128 123 121 119 116 118 124 124 116 113 106 108 110 105 99 96 93 100 92 86 79 72 70 68 65 62 60 57 56 56 58 57 56 53 52 51 47 40 31 28 29 31 34 30 19 10 1 -6 -12 -15 -16 -16 -16 -16 -16 -16 -16 -16 -16 -16 -16 -16 -16 -16 -16 -13 -9 -9 -15 -16 -15 -14 -11 -6 -8 -13 -15 -15 -15 -16 -16 -16 -16 -16 -16 -16 -16 -16 -16 -16 -16 -16 -16 -16 -16 -16 -16 -16 -15 -15 -9 2 -12 -13 2 5 18 7 -8 2 -6 -4 7 8 13 16 10 5 3 5 3 3 4
351 341 317 313 299 273 278 286 295 296 285 293 295 292 277 268 265 274 292 307 311 312 317 305 309 308 312 310 314 316 319 330 346 361 371 371 370 364 358 346 332 323 322 327 316 308 308 309 312 313 322 318 319 313 299 293 298 287 285 282 295 313 302 293 291 282 280 299 310 317 313 314 296 300 300 311 325 338 333 324 312 309 303 300 294 290 283 280 276 274 272 267 264 264 260 258 244 248 251 253 258 257 259 265 275 274 265 271 268 274 276 284 288 283 283 286 288 298 290 288 296 295 301 320 325 329 325 310 314 316 314 304 294 289 283 288 286 280 286 297 300 292 288 293 307 320 316 300 285 308 303 294 310 306 291 299 306 308 304 298 292 301 291 274 279 289 295 298 298 289 282 273 267 266 265 262 259 258 255 260 259 255 255 254 257 251 256 254 251 249 244 246 245 244 248 249 249 247 246 247 249 252 256 259 263 266 270 273 273 278 285 284 280 281 277 271 271 269 267 259 255 255 254 252 247 248 250 247 246 243 242 244 237 238 240 241 237 233 233 235 232 232 238 240 236 230 225 219 205 212 208 205 203 205 207 205 193 194 203 202 196 201 201 204 201 201 201 201 197 191 195 198 195 187 186 185 175 174 182 182 180 178 177 181 184 184 181 180 179 180 182 188 192 190 189 192 196 201 203 202 201 206 211 214 212 213 214 217 212 215 218 223 221 227 221 206 197 209 215 213 214 211 204 209 206 211 217 214 213 215 216 225 229 224 227 219 227 231 232 231 235 230 240 233 224 214 208 214 199 194 187 179 175 165 155 147 144 142 135 133 131 129 128 126 123 122 123 123 123 120 120 119 116 115 117 118 116 115 117 118 117 112 104 101 101 101 101 100 99 98 98 98 97 97 96 97 96 97 98 99 104 109 117 127 125 119 123 123 117 112 114 119 124 129 131 134 138 143 147 152 156 162 167 158 149 142 133 128 123 121 119 117 113 113 113 120 111 111 116 116 117 112 108 102 99 100 97 90 85 88 96 92 88 80 74 71 67 64 61 60 56 54 51 49 52 53 52 49 46 41 35 35 40 39 42 32 29 23 16 4 -3 -10 -15 -16 -16 -16 -16 -16 -16 -16 -16 -16 -16 -16 -16 -16 -16 -16 -14 -7 -6 -14 -16 -16 -16 -15 -8 -7 -10 -14 -15 -15 -15 -16 -16 -16 -16 -16 -16 -16 -16 -16 -16 -16 -16 -16 -16 -16 -16 -16 -16 -16 -15 -13 3 -11 -4 -1 5 12 13 -10 -3 -5 -8 -2 -7 -1 8 17 7 1 7 3 4 5
366 347 322 312 295 281 274 271 277 272 268 267 267 270 267 270 269 279 282 292 298 302 308 307 314 314 317 318 315 316 329 339 346 361 361 363 360 351 341 337 335 327 341 332 316 311 319 317 321 328 335 331 315 305 300 307 302 290 284 276 288 295 289 287 281 274 276 284 292 300 294 296 290 289 303 312 315 327 332 328 328 320 307 294 293 287 281 281 277 277 282 272 267 269 266 269 261 263 269 267 256 247 253 257 261 259 260 268 267 262 262 267 276 275 281 274 282 280 282 287 274 284 298 307 312 319 323 323 324 318 301 295 294 279 288 297 289 282 278 281 281 284 281 284 297 300 310 300 283 298 291 294 310 302 286 282 290 302 316 312 303 286 281 271 273 284 289 288 290 295 288 276 268 263 261 260 257 255 261 259 258 254 256 257 255 246 246 242 235 237 242 243 245 247 246 248 244 240 240 242 245 249 255 259 258 258 259 267 274 280 283 277 276 279 274 270 267 263 257 254 250 250 252 252 247 249 249 245 239 240 244 239 235 239 239 236 233 234 234 237 232 232 233 232 228 220 211 203 209 212 212 207 209 207 206 201 192 198 196 194 192 201 204 203 199 196 200 199 199 194 187 190 191 184 184 176 172 180 182 181 183 184 184 183 185 182 179 180 180 182 183 189 192 190 188 190 194 199 200 198 201 205 209 211 210 209 209 216 216 212 215 215 216 220 221 208 196 199 213 209 213 212 200 206 202 213 214 211 206 211 209 216 224 217 215 215 222 224 224 220 228 241 248 238 235 229 218 228 224 212 209 190 177 166 160 153 151 145 138 136 134 131 129 126 124 123 123 123 123 121 120 120 119 117 118 119 119 117 115 113 112 108 104 101 100 100 100 100 99 98 98 97 97 96 96 96 96 96 97 98 99 101 105 112 127 125 124 123 119 114 112 119 125 127 131 133 137 140 144 150 152 157 159 151 143 137 132 124 119 118 116 114 112 112 108 113 109 107 113 113 109 105 104 101 94 90 89 85 81 84 88 91 92 86 78 70 66 64 62 59 57 54 50 49 47 47 46 44 42 40 37 42 45 40 41 42 37 23 16 7 -2 -9 -15 -16 -16 -16 -16 -16 -16 -16 -16 -16 -16 -16 -16 -16 -16 -16 -13 -2 -3 -12 -16 -16 -16 -16 -12 -6 -9 -13 -14 -14 -15 -15 -16 -16 -16 -16 -16 -16 -16 -16 -16 -16 -16 -16 -16 -16 -16 -16 -16 -16 -15 -14 -2 -10 -0 -8 -6 8 17 9 9 12 7 -10 -9 -10 -4 5 13 3 8 3 9 9
370 350 334 320 313 297 294 296 299 297 290 289 293 291 285 292 285 269 263 269 271 279 285 292 306 323 327 334 329 326 332 347 347 347 346 358 360 353 347 349 350 338 341 326 313 320 334 330 340 342 345 325 316 311 314 319 307 299 299 294 283 280 286 275 270 267 266 269 274 277 279 281 281 287 296 299 301 311 322 329 329 314 301 295 299 291 295 292 278 273 284 276 271 272 272 269 264 266 262 254 249 244 249 255 258 268 274 267 258 254 255 263 269 278 280 270 276 273 279 276 278 290 291 297 295 301 315 329 321 305 300 307 296 290 296 287 278 274 277 275 272 273 273 275 281 293 307 300 284 287 284 286 297 297 292 277 288 303 308 300 292 281 271 264 266 271 282 284 273 280 284 268 264 257 254 251 255 253 258 252 258 254 251 256 252 247 243 243 239 242 242 241 240 246 248 242 237 238 241 241 240 242 249 253 256 254 258 269 273 280 279 278 277 277 274 268 262 252 256 255 250 255 248 243 244 252 250 244 237 236 243 235 236 239 234 230 227 228 230 230 226 224 223 227 218 208 207 210 216 213 210 206 205 205 206 201 201 205 200 197 193 202 210 208 203 195 197 191 196 196 189 181 183 183 177 171 174 179 178 178 180 184 185 186 187 185 180 176 177 180 184 188 192 191 186 188 193 199 200 197 199 204 206 205 203 202 209 218 217 208 213 212 212 214 219 213 198 194 207 204 207 198 195 195 199 201 206 208 202 206 204 212 213 209 214 215 219 218 216 228 232 239 245 237 226 226 215 223 227 220 215 199 186 180 168 160 151 143 140 141 136 132 130 128 126 124 123 123 121 119 120 124 127 121 117 117 118 117 113 111 108 104 103 104 105 105 102 99 98 98 97 97 98 97 96 96 96 96 96 98 96 96 99 102 111 126 125 122 119 112 114 122 123 126 128 131 133 138 142 144 148 151 149 141 135 131 128 124 120 117 112 110 110 111 107 104 103 101 106 108 104 103 99 94 91 87 84 82 78 82 89 89 88 86 83 71 68 66 61 58 55 53 51 49 48 48 51 53 51 48 48 50 47 38 31 40 43 32 25 7 -6 -11 -16 -16 -16 -16 -16 -16 -16 -16 -16 -16 -16 -16 -16 -16 -16 -16 -12 -1 -1 -10 -16 -16 -16 -16 -16 -10 -8 -11 -12 -11 -13 -15 -15 -15 -16 -16 -16 -16 -16 -16 -16 -16 -16 -16 -16 -16 -16 -16 -16 -16 -15 -15 -8 -3 0 -10 -8 6 10 14 7 9 13 -7 -10 -9 -5 1 8 10 14 5 6 12
365 357 349 336 331 319 322 322 325 320 314 310 312 308 308 306 296 276 274 273 264 268 272 291 306 316 325 331 342 334 328 337 331 324 333 348 362 361 354 349 352 347 345 329 317 331 345 347 343 344 332 329 329 320 316 312 310 308 294 280 270 268 265 263 262 264 265 264 266 266 266 273 272 275 283 285 291 301 308 311 321 313 314 300 288 289 305 299 292 280 285 289 283 281 271 273 273 262 252 251 254 251 252 264 274 268 274 270 262 263 260 272 279 275 271 261 266 267 265 271 278 282 292 281 280 290 302 316 326 323 321 310 300 289 286 281 290 280 282 274 266 268 269 269 272 281 288 289 280 274 270 280 280 280 281 272 282 297 309 309 298 289 273 262 266 258 266 278 267 266 283 279 279 268 255 246 256 247 257 257 255 251 254 254 255 243 241 242 238 241 241 242 240 237 231 228 234 240 241 242 243 242 242 249 257 261 265 271 276 278 280 277 277 274 267 261 258 251 255 251 250 247 246 242 239 244 245 244 235 234 235 229 229 228 228 228 228 227 226 227 229 222 227 228 213 210 206 214 215 212 210 206 203 200 201 196 202 202 198 193 190 195 205 205 199 193 196 191 187 188 186 186 185 181 168 174 178 183 186 181 176 174 177 182 182 184 182 179 181 182 185 183 186 184 186 192 195 199 198 196 199 201 200 201 201 199 206 211 210 204 210 209 212 208 209 214 201 191 201 199 199 190 192 191 193 198 206 205 200 198 199 202 205 213 221 221 221 213 214 221 230 236 239 228 215 211 212 214 222 208 193 184 174 169 160 151 147 145 146 142 135 133 131 131 130 127 124 121 120 119 120 121 123 125 121 117 115 111 108 107 106 107 106 109 114 115 110 103 101 98 97 98 100 97 96 96 96 96 96 96 96 96 96 99 104 120 124 121 119 112 111 119 120 123 126 129 132 137 139 140 143 146 145 139 132 126 123 119 116 113 110 107 107 105 106 104 100 98 101 101 98 97 98 94 86 82 80 79 77 79 86 82 81 80 79 72 69 67 69 65 57 55 52 49 49 48 51 53 56 46 36 31 33 34 27 33 43 41 35 16 -2 -9 -15 -16 -16 -16 -16 -16 -16 -16 -16 -16 -16 -15 -15 -16 -15 -15 -14 -9 -1 -9 -16 -16 -16 -16 -16 -15 -5 -10 -12 -9 -13 -15 -15 -15 -15 -16 -16 -16 -16 -16 -16 -16 -16 -16 -16 -16 -16 -16 -16 -16 -15 -15 -14 -8 3 -2 -12 -1 5 9 -1 -4 10 -9 -10 -10 -8 -6 -4 3 10 8 1 5
346 337 328 320 322 331 342 342 341 338 331 325 322 319 309 295 292 290 288 284 280 274 266 279 291 299 311 317 327 331 327 327 323 323 325 343 353 362 359 351 350 346 337 323 320 331 339 346 347 346 336 337 326 315 312 304 300 287 274 273 265 265 263 263 265 264 263 262 265 260 260 262 266 273 277 277 274 277 291 296 306 302 305 301 291 291 290 294 307 294 308 308 288 272 272 283 281 262 264 266 259 255 260 267 269 267 269 268 263 263 266 272 271 262 255 252 258 257 258 263 267 270 269 268 272 282 287 304 308 318 319 306 293 292 291 295 300 287 279 271 266 273 271 266 266 267 268 278 280 268 263 274 270 270 267 274 293 299 310 300 294 287 282 264 256 251 252 268 260 265 278 285 279 273 262 251 242 233 255 252 252 251 250 251 249 241 245 243 239 240 238 235 222 225 222 222 235 238 239 246 251 241 244 254 258 270 274 280 279 278 278 274 272 267 263 258 254 249 252 247 246 238 240 242 243 243 245 239 233 234 235 227 228 227 227 230 230 231 230 229 226 224 224 223 215 214 210 215 213 209 205 205 204 203 202 207 213 209 201 197 193 188 193 201 201 192 189 191 186 184 187 188 184 175 171 179 185 188 188 185 181 176 177 177 181 181 182 182 181 181 180 180 181 182 187 192 195 197 197 196 208 217 209 203 197 194 198 207 209 199 203 203 211 208 202 204 199 188 196 193 192 187 188 189 193 199 205 197 194 194 201 207 208 212 216 220 218 208 211 221 220 226 230 214 209 213 224 220 204 202 187 181 177 170 162 154 152 148 141 138 137 138 138 138 136 132 125 124 124 122 118 118 119 118 116 112 111 110 110 112 111 113 113 115 114 114 111 109 109 107 101 101 103 98 96 96 96 97 97 98 97 95 97 97 103 115 122 125 119 111 110 113 114 119 124 129 130 130 137 139 136 138 133 130 124 118 118 117 113 109 107 104 104 102 100 101 96 95 96 91 92 93 94 95 87 84 79 75 74 75 79 67 73 77 76 73 68 69 66 62 58 54 52 49 47 45 46 49 50 35 24 20 21 23 24 28 39 41 34 23 5 -6 -13 -16 -16 -16 -16 -16 -16 -16 -16 -16 -16 -15 -14 -10 -7 -8 -5 -14 -6 -8 -13 -15 -16 -16 -16 -15 -3 -7 -7 -7 -12 -14 -15 -15 -15 -15 -16 -16 -16 -16 -16 -16 -16 -16 -16 -16 -16 -16 -16 -16 -16 -15 -15 -14 -3 2 -5 -6 2 11 19 -4 6 3 -5 -4 -7 -7 -7 -2 9 9 -0 -5
331 321 314 305 304 310 326 344 347 341 330 318 310 306 303 299 295 289 291 288 282 283 267 269 275 280 290 298 310 319 327 326 328 321 320 341 356 358 351 349 343 334 328 336 332 334 340 344 346 344 332 317 309 306 300 295 292 282 275 273 263 262 261 260 262 261 261 255 258 256 256 256 255 260 265 263 260 269 277 283 284 284 283 282 284 291 286 287 294 295 308 302 292 287 285 287 288 275 276 271 264 255 255 255 250 248 250 248 246 248 252 264 268 263 250 246 253 254 263 268 269 275 275 278 286 278 282 296 307 314 309 304 303 304 302 307 306 288 286 283 280 284 261 261 264 264 263 261 267 268 259 271 272 263 267 286 295 302 300 301 297 281 271 263 257 255 249 248 249 252 265 274 270 271 266 257 232 240 254 249 248 249 248 248 248 245 246 239 237 234 222 217 219 223 231 232 234 242 243 248 257 248 246 258 264 271 280 282 276 272 269 265 263 263 265 258 248 248 249 243 240 246 243 241 239 237 243 231 229 231 230 229 231 227 227 228 226 228 229 226 221 217 218 215 214 217 209 206 209 205 203 200 202 205 209 208 210 205 201 204 197 189 187 196 200 196 187 185 182 182 185 181 175 166 178 181 184 188 187 187 184 180 180 180 179 181 179 180 179 181 185 181 183 183 184 186 191 192 189 195 211 217 214 211 204 193 192 199 206 203 194 198 207 205 199 193 192 187 187 187 188 184 184 187 193 198 200 193 191 201 205 209 212 213 214 214 213 203 211 208 210 212 208 206 215 226 230 228 202 192 191 185 180 177 166 154 147 143 142 142 146 146 144 139 134 130 129 130 129 124 122 118 116 115 115 115 114 114 118 120 118 120 121 120 117 115 113 112 114 112 109 106 105 101 97 96 97 97 98 98 96 96 95 97 101 111 118 127 129 123 114 112 113 119 124 127 130 127 131 135 133 127 121 118 114 111 110 111 110 105 101 102 100 100 96 97 94 92 92 90 89 89 88 88 86 87 87 76 74 76 79 67 73 77 75 71 72 72 69 66 67 61 56 54 48 44 42 44 48 42 27 20 18 19 21 25 33 36 36 34 14 -3 -12 -15 -16 -16 -16 -16 -16 -16 -16 -16 -16 -16 -15 -7 -7 2 8 -2 -5 -0 -1 -4 -12 -16 -16 -12 -0 0 -2 -6 -7 -13 -15 -15 -15 -15 -15 -16 -16 -16 -16 -16 -16 -16 -16 -16 -16 -16 -16 -16 -16 -15 -15 -15 -7 2 2 -3 -4 7 17 12 -1 4 7 8 -1 -4 -7 -1 12 9 8 7
315 308 305 302 299 301 312 331 346 333 316 312 307 300 302 301 296 291 293 288 283 283 266 262 261 266 271 279 289 310 324 333 325 320 325 346 355 347 342 343 339 335 333 340 344 342 346 344 331 324 315 307 298 298 295 291 287 281 275 273 263 262 263 261 257 255 256 254 253 251 254 254 254 255 257 259 254 259 265 266 267 270 272 265 270 280 274 279 277 286 290 295 298 304 299 295 287 275 263 261 262 260 253 257 257 253 247 246 244 247 245 247 247 248 241 252 258 263 265 267 276 272 275 274 280 280 282 296 302 306 297 291 294 303 294 307 305 291 290 291 287 281 263 258 253 255 260 262 261 264 259 260 255 261 277 287 286 290 283 289 299 286 284 273 278 268 258 248 244 239 246 258 258 256 255 248 249 249 247 247 249 251 249 252 251 248 242 225 227 232 224 230 230 230 230 235 238 245 252 255 263 260 248 258 268 272 276 274 269 264 259 258 260 262 259 249 242 251 245 236 244 247 245 244 241 244 242 232 228 227 228 231 226 228 231 226 228 228 229 220 217 218 217 212 213 211 208 207 207 206 204 203 206 207 205 204 203 204 207 203 194 188 185 186 195 197 194 193 191 188 179 168 168 176 181 184 186 188 188 183 182 179 179 181 179 178 180 180 179 180 185 186 189 188 183 184 189 188 188 192 202 208 209 204 200 196 189 191 201 201 193 192 202 204 198 197 197 190 184 183 184 183 181 186 192 190 189 187 193 198 199 204 207 210 210 205 203 196 201 197 196 200 202 214 226 227 226 228 217 192 180 173 172 163 155 151 150 148 148 150 152 147 139 135 134 133 136 136 138 135 130 126 122 121 120 117 117 120 126 128 127 124 125 123 121 119 116 116 116 114 112 111 106 101 99 98 99 99 99 100 99 96 95 95 98 110 120 124 128 129 124 113 112 114 121 124 123 120 125 129 125 118 114 110 107 104 104 105 105 103 98 97 98 96 94 93 91 89 88 86 85 84 83 83 83 83 82 80 75 75 76 78 78 75 72 73 81 82 74 70 67 62 62 57 52 51 43 39 39 39 40 34 20 17 18 23 31 36 36 39 23 3 -9 -13 -16 -16 -16 -16 -16 -16 -16 -16 -16 -16 -12 -8 -8 -5 9 10 6 3 2 1 -8 -16 -16 -12 -9 3 1 -2 -4 -5 -9 -13 -12 -13 -15 -16 -16 -16 -16 -16 -16 -16 -16 -16 -16 -16 -16 -16 -16 -15 -13 -15 -6 -0 -6 -6 -3 2 7 19 16 13 10 10 8 9 7 5 14 10 10 13
309 304 301 298 296 301 306 316 323 316 310 309 305 305 304 293 287 291 295 289 290 287 286 273 259 263 259 268 281 303 316 331 333 328 323 336 344 337 342 341 337 333 340 341 340 344 343 332 321 313 303 299 297 298 295 286 280 277 272 268 265 265 261 259 256 255 255 253 256 248 249 249 250 253 254 257 254 255 257 257 258 260 262 257 258 257 257 262 260 265 267 275 287 300 293 291 282 268 255 250 256 263 258 256 250 242 242 243 244 245 243 242 242 239 235 239 245 256 267 269 269 261 258 267 277 273 282 285 284 291 285 279 285 292 291 302 298 295 281 281 272 268 268 271 275 259 256 261 265 260 261 259 253 253 267 272 273 275 281 276 283 285 297 281 285 277 270 255 246 242 234 245 250 244 242 242 244 251 250 247 249 251 253 249 251 255 243 231 212 216 218 227 231 234 234 238 240 243 251 263 272 273 261 260 268 268 267 267 265 260 256 256 256 258 261 243 238 246 239 237 246 242 243 242 242 244 241 229 225 224 225 228 225 223 226 230 226 227 220 217 217 217 214 208 209 206 206 207 206 208 207 204 203 203 201 203 205 205 205 198 196 193 188 187 198 200 194 188 187 179 165 170 176 182 184 183 183 182 182 183 181 179 179 181 182 181 181 179 178 180 182 189 191 189 184 182 185 185 186 188 193 198 201 200 197 196 195 186 194 197 190 187 193 200 203 196 197 192 184 181 180 180 179 184 189 186 184 189 193 195 197 202 206 206 205 199 196 192 191 195 204 214 217 213 218 221 222 222 221 204 185 174 167 163 158 159 155 153 155 150 144 140 137 137 134 133 132 130 130 132 133 132 131 125 121 119 121 126 125 127 130 129 126 125 122 121 118 118 117 117 117 117 107 101 100 103 104 102 100 100 99 97 95 95 101 111 116 120 123 127 126 114 115 113 120 120 118 114 117 121 120 115 110 106 103 102 101 99 98 96 95 94 94 92 91 90 90 90 91 91 87 84 81 79 80 84 87 79 70 68 75 80 77 73 70 73 81 84 77 73 68 66 61 58 57 52 46 39 35 34 36 36 18 17 18 25 31 35 38 37 28 13 -5 -12 -15 -16 -16 -16 -16 -16 -16 -16 -16 -16 -15 -16 -11 -4 13 14 10 5 4 3 -8 -15 -16 -15 -8 -4 4 3 -0 -1 -4 -7 -8 -13 -15 -16 -16 -16 -16 -16 -16 -16 -16 -16 -16 -16 -16 -16 -16 -16 -12 -14 -2 -7 -5 -11 -8 -2 -2 7 17 16 16 16 16 13 7 7 16 12 10 15
303 302 301 301 295 295 299 304 309 307 308 304 306 304 299 289 281 284 295 291 294 294 290 282 270 257 259 266 278 293 307 326 331 336 329 329 327 329 333 336 337 332 337 337 340 339 332 319 307 297 291 292 295 296 285 281 279 274 269 266 265 263 261 259 255 255 254 252 249 252 249 243 244 249 249 257 254 254 256 257 254 256 255 254 256 259 256 257 257 258 262 260 265 276 275 274 267 261 255 250 245 246 249 249 245 243 242 246 249 244 242 238 237 239 237 236 237 239 252 262 268 266 254 260 262 266 271 273 273 272 276 272 277 285 300 310 295 285 284 278 274 275 275 281 285 276 266 263 261 261 258 259 258 258 256 253 268 263 266 262 268 282 293 279 272 260 253 247 243 240 238 237 236 242 243 243 249 250 247 247 251 257 251 245 245 249 240 230 208 215 230 241 236 229 234 241 246 249 245 254 269 278 272 265 259 265 265 266 261 252 247 254 245 242 240 236 241 243 233 236 247 242 238 244 243 242 241 230 223 221 224 224 227 223 222 228 228 228 220 218 216 214 211 207 206 204 206 210 209 208 207 204 204 199 197 199 201 206 200 192 186 190 189 189 197 193 186 180 173 161 169 179 181 183 183 179 181 180 179 181 181 179 178 178 179 180 180 181 182 180 184 188 190 189 184 182 182 182 186 189 191 193 192 195 195 193 193 186 187 199 194 184 183 189 198 196 191 196 192 184 179 178 177 181 183 181 184 190 194 198 200 204 207 203 198 196 191 187 192 210 211 219 221 220 218 218 217 218 215 212 199 180 174 167 167 165 160 158 153 149 145 143 142 143 139 135 133 131 129 127 127 125 127 129 127 125 122 120 120 121 122 123 124 124 123 121 119 121 121 121 119 118 109 101 103 107 105 106 103 98 99 99 98 98 102 110 114 117 117 120 124 118 115 111 111 111 109 107 109 111 108 106 106 104 100 101 103 101 100 98 100 99 98 95 96 98 99 100 98 93 86 87 86 79 79 81 84 79 66 65 76 73 67 64 71 72 72 79 79 74 71 69 67 64 59 54 48 44 38 30 31 30 23 25 31 27 31 35 38 35 39 24 6 -4 -11 -15 -16 -16 -16 -16 -16 -16 -16 -16 -16 -16 -11 0 13 18 11 10 9 7 -1 -12 -16 -16 -11 -11 -9 4 2 1 -1 -4 -12 -16 -16 -16 -16 -16 -16 -16 -16 -16 -16 -15 -15 -16 -16 -16 -16 -16 -9 -13 -3 -4 -8 -9 -5 -5 -6 -1 7 19 18 12 10 18 7 6 9 5 5 12
299 302 299 298 293 284 292 297 299 303 305 305 307 300 297 291 281 282 291 292 297 297 291 287 282 254 259 262 271 285 298 313 326 332 322 317 317 320 326 329 329 323 323 324 327 328 316 303 296 289 287 284 287 284 281 281 277 271 268 265 262 260 260 259 256 255 254 251 250 246 245 241 241 243 245 250 253 250 255 259 265 260 255 255 251 254 253 254 257 258 252 247 253 260 260 260 256 252 252 247 240 242 247 250 245 243 243 244 246 242 240 236 235 236 235 234 234 233 234 240 259 262 253 252 257 261 266 268 269 264 267 271 279 288 297 303 299 291 291 281 285 289 289 292 296 280 267 267 265 261 257 265 256 263 254 253 252 247 251 250 265 273 281 273 269 266 262 247 248 247 245 242 238 243 239 243 244 247 247 246 251 256 240 241 240 241 235 229 213 225 238 243 241 238 242 252 256 260 257 256 263 273 270 266 265 262 258 261 261 256 254 251 252 247 235 230 233 240 229 237 244 241 233 245 242 241 231 227 223 222 223 221 221 219 222 231 230 228 219 219 219 219 211 207 208 208 211 211 208 208 204 202 201 201 202 199 199 196 197 197 188 183 183 183 183 182 179 173 164 165 174 175 175 176 176 176 178 178 179 180 181 182 180 177 175 177 179 179 181 182 185 187 187 185 183 180 180 186 191 194 197 197 197 194 191 189 188 186 183 195 194 188 179 180 191 194 189 182 188 189 180 176 175 178 177 179 183 187 191 195 199 203 202 199 193 192 194 184 196 209 216 217 214 212 210 207 208 207 213 217 198 183 189 177 174 171 168 163 160 159 154 151 146 145 140 138 136 134 133 131 128 127 125 124 123 122 121 120 119 119 118 120 122 124 124 122 120 121 121 119 119 121 117 110 106 105 103 106 107 101 100 103 103 100 101 105 107 109 112 113 116 113 112 109 106 107 106 105 105 103 100 100 103 101 100 105 109 106 103 101 104 103 103 102 102 107 109 102 98 93 90 88 84 78 78 79 81 82 77 63 61 58 56 63 63 61 67 71 75 76 66 63 66 61 53 54 50 44 33 27 27 23 20 27 32 34 37 37 41 41 41 31 18 3 -10 -14 -15 -16 -16 -16 -16 -16 -16 -16 -16 -15 -9 4 14 18 15 13 11 11 5 -7 -16 -16 -14 -16 -15 1 5 3 2 -2 -13 -15 -15 -16 -16 -16 -16 -16 -16 -16 -16 -16 -16 -15 -14 -14 -13 -12 -4 -13 -7 -4 -1 -3 -6 -6 -9 -4 3 10 18 22 17 13 15 4 3 6 6 5
296 302 300 300 296 279 287 290 293 297 300 305 305 301 290 295 284 278 289 291 294 292 290 288 288 271 256 263 267 274 285 301 311 312 305 303 302 297 301 306 303 297 297 307 312 314 300 293 289 289 284 283 285 282 283 280 275 271 265 261 263 262 257 259 255 254 251 251 248 247 245 239 238 238 241 243 243 248 252 251 259 261 251 248 248 249 252 256 257 253 252 249 256 250 248 253 252 250 242 243 245 243 249 251 250 243 242 242 249 240 239 238 236 232 232 236 236 232 234 234 242 253 262 268 265 258 262 261 262 268 274 284 294 291 288 292 307 308 297 292 288 295 303 304 298 284 270 265 264 263 268 275 271 276 262 250 245 234 242 251 259 270 267 279 274 269 258 261 258 259 257 251 247 243 239 239 243 243 246 246 250 247 239 243 241 237 235 234 232 231 230 232 236 240 244 255 259 264 266 266 267 264 263 263 269 261 256 259 263 260 249 247 242 235 234 232 229 228 223 230 234 235 239 245 245 236 225 223 224 221 221 221 222 227 231 223 225 223 219 216 216 213 209 205 210 211 207 205 202 207 203 205 201 199 200 200 198 197 195 202 189 187 187 180 180 179 175 166 161 168 172 167 171 165 170 170 176 176 178 179 180 181 182 180 175 176 177 177 178 180 183 182 185 184 179 176 178 181 184 186 188 188 192 199 200 197 188 185 184 193 192 188 186 174 177 185 186 178 179 187 184 174 173 174 176 180 183 187 190 194 197 197 196 193 192 187 189 182 191 199 207 209 203 200 199 198 202 210 217 221 204 193 194 189 185 185 175 171 177 174 162 154 151 146 147 143 141 138 137 134 131 132 130 128 126 127 126 124 121 119 118 118 118 123 124 122 120 120 119 120 122 123 118 113 108 106 106 104 106 108 108 107 107 102 107 110 109 104 106 106 110 109 109 112 112 115 113 111 109 108 110 111 106 104 102 106 113 109 104 104 108 108 109 110 110 113 110 103 97 93 89 88 84 77 75 77 79 81 76 68 61 52 51 57 60 63 70 79 77 72 66 60 56 51 46 46 53 39 34 26 25 25 22 24 29 35 44 46 41 44 46 42 34 18 3 -9 -13 -15 -16 -16 -16 -16 -16 -16 -14 -11 -7 6 18 17 18 16 15 11 8 -2 -16 -16 -11 -10 -10 0 8 7 4 4 -5 -15 -15 -16 -15 -16 -16 -16 -16 -16 -16 -16 -16 -14 -11 -10 -9 -4 -6 -13 -13 -10 -2 -5 -4 1 0 -2 -3 -1 7 12 14 14 20 7 5 6 12 12
293 299 301 300 293 285 284 286 295 302 299 301 300 297 285 287 278 274 286 287 290 289 284 289 285 271 254 260 268 282 285 296 297 298 298 300 295 292 292 292 289 292 287 292 292 291 286 291 292 288 286 284 284 280 281 281 272 272 265 263 261 262 258 257 253 254 252 255 253 249 245 239 241 234 234 238 242 239 244 243 244 249 251 246 251 247 245 246 249 255 252 251 252 241 244 251 246 247 239 243 242 244 246 245 244 242 243 241 240 237 236 236 237 232 229 233 235 233 234 235 234 241 256 273 282 267 257 258 262 271 276 288 297 284 276 286 307 313 310 304 295 304 311 302 286 278 269 265 276 273 274 286 287 280 265 249 243 239 236 249 248 251 254 263 261 260 269 272 267 271 268 264 260 248 241 237 241 242 240 242 250 242 243 248 240 232 239 237 235 230 232 232 235 238 237 243 255 262 263 268 265 265 263 265 262 260 262 263 257 252 250 251 243 240 239 234 232 231 233 222 230 240 240 236 230 227 226 222 222 220 220 229 232 228 226 225 221 222 218 217 211 213 208 212 215 212 207 203 200 200 197 197 200 200 200 198 200 203 202 193 187 190 190 185 182 178 170 163 163 170 177 178 177 174 178 177 177 177 177 178 178 178 178 179 178 180 181 180 180 178 182 181 183 181 177 175 174 175 176 178 181 182 183 186 189 191 196 195 184 193 189 179 180 177 170 178 180 173 172 181 186 172 171 172 173 178 182 186 189 192 190 191 194 192 187 185 182 181 189 196 203 202 198 196 193 201 210 215 220 223 224 219 207 211 212 201 186 177 190 179 164 160 163 156 155 151 146 143 141 136 136 135 134 131 132 131 129 128 126 121 119 118 118 117 117 117 116 116 119 121 118 114 110 111 113 114 109 107 108 109 113 108 106 106 109 109 109 106 106 109 111 116 119 122 126 125 118 119 121 121 120 118 113 109 104 105 114 114 107 108 117 119 114 116 113 109 105 101 97 93 89 86 82 76 73 75 78 81 80 65 55 51 50 54 65 76 79 79 79 79 73 74 68 60 55 44 40 36 33 29 25 23 21 22 28 35 43 48 33 38 39 33 39 39 23 5 -7 -10 -14 -15 -16 -16 -15 -12 -5 -2 1 12 21 20 18 19 19 16 12 1 -15 -16 -16 -12 -5 2 10 8 1 7 7 -5 -15 -16 -15 -15 -16 -14 -15 -16 -16 -15 -15 -10 -7 -7 -7 -3 -8 -12 -13 -12 -5 -5 -4 -4 -1 5 1 -2 -3 5 5 7 12 12 6 8 13 15
287 287 290 288 281 279 282 286 292 297 299 296 292 289 280 285 270 255 269 280 285 283 274 279 273 266 252 260 264 271 278 281 287 296 292 294 298 294 286 287 288 286 287 289 293 293 285 291 290 282 279 285 281 281 279 277 268 269 267 264 259 259 258 257 253 254 253 253 250 245 242 234 234 227 226 229 235 239 240 240 239 241 244 246 242 243 242 254 252 250 249 240 248 244 238 241 237 240 240 238 241 241 245 247 242 242 241 239 237 237 234 234 233 231 229 228 231 233 233 232 233 237 247 265 279 271 270 267 266 266 269 283 284 273 267 280 291 304 308 306 302 304 301 293 286 283 273 272 281 280 280 293 295 281 268 253 244 235 236 246 238 246 254 249 245 243 257 262 264 271 282 279 264 259 247 239 241 236 238 244 248 251 246 247 238 232 234 235 233 229 233 228 229 235 241 244 254 253 256 263 261 262 260 262 258 258 258 254 249 248 246 248 251 245 240 237 239 236 231 221 231 238 236 231 228 226 222 221 224 223 228 235 231 229 224 226 215 225 214 212 209 218 220 216 214 210 204 204 203 199 194 193 202 194 191 196 197 200 201 196 190 185 183 182 170 166 165 169 178 181 180 181 180 180 177 178 180 179 178 177 177 178 178 178 178 179 179 180 181 181 186 182 178 175 173 173 172 172 172 175 177 179 181 181 181 183 186 193 179 183 186 177 173 176 173 169 174 167 167 177 179 170 170 170 172 174 178 182 186 186 189 191 192 190 188 188 181 182 195 195 194 194 190 190 195 197 202 209 215 222 224 227 220 221 220 215 196 190 191 172 166 168 170 163 158 153 151 149 143 143 143 140 136 130 127 128 127 127 128 124 121 122 121 120 119 117 115 114 114 113 113 113 116 119 120 117 116 114 114 111 109 108 110 109 110 110 112 111 109 111 117 125 130 131 129 126 121 125 128 129 125 119 119 114 106 108 116 114 109 111 118 127 118 116 114 110 107 102 97 93 89 85 81 75 71 73 75 78 81 64 52 51 50 56 71 80 79 82 79 77 81 73 63 60 56 49 41 36 33 29 27 22 19 19 24 32 40 47 38 40 41 38 38 44 29 28 10 -1 -8 -10 -10 -12 -11 4 11 13 19 17 17 23 16 15 17 16 15 2 -15 -16 -16 -15 -8 3 11 10 -1 4 9 4 -8 -8 -5 -13 -16 -13 -12 -16 -15 -13 -10 -3 -4 -8 -5 -1 -7 -11 -12 -12 -5 -12 -12 -12 -7 -2 -6 -3 -4 -1 2 3 4 6 6 7 11 15
263 277 280 278 278 281 287 286 287 294 295 291 282 281 275 278 272 247 262 274 279 276 264 261 257 253 257 268 276 270 270 275 282 291 293 288 291 292 289 279 281 281 286 293 292 294 287 283 286 280 278 282 280 278 272 268 268 269 262 266 258 256 255 254 253 247 247 246 245 243 240 234 224 223 225 228 231 237 244 243 240 242 241 242 237 239 243 254 247 250 242 247 240 245 243 239 235 238 239 240 241 242 241 243 242 241 241 238 233 235 235 235 232 230 229 228 230 231 230 231 233 232 238 250 259 269 276 278 273 261 260 272 261 259 260 270 277 283 296 298 291 287 295 298 288 280 274 283 295 287 292 299 293 277 267 256 244 236 234 231 233 235 235 233 233 236 244 250 258 266 271 264 256 249 241 240 241 235 241 242 246 252 243 247 237 233 226 231 228 224 229 228 230 242 250 256 261 257 253 261 264 261 259 260 259 255 257 255 248 248 246 248 250 246 241 238 237 234 232 222 226 227 228 228 226 220 221 224 233 238 235 234 233 226 226 222 208 214 212 209 219 222 217 216 211 207 204 202 202 199 196 198 202 196 193 192 188 191 190 195 195 193 188 184 177 160 165 179 185 185 179 180 178 179 177 174 179 180 178 177 177 177 176 177 179 180 181 180 183 183 181 177 173 171 171 171 171 170 172 173 174 178 181 179 177 181 183 182 175 180 176 171 165 164 172 170 164 163 165 170 174 168 168 171 174 177 178 180 180 184 186 187 188 190 196 193 177 179 187 183 183 186 194 198 204 207 207 207 212 217 220 224 219 213 212 216 220 204 198 180 172 175 173 164 161 161 155 150 147 146 147 146 139 132 130 127 126 125 124 124 126 125 123 119 117 117 115 116 115 117 116 113 119 122 121 119 119 116 112 111 113 113 112 112 115 115 114 111 113 120 124 127 128 128 127 126 124 126 125 125 125 125 118 110 106 110 117 114 109 112 118 123 122 111 111 109 107 103 99 93 87 82 77 72 69 70 72 75 79 72 59 52 54 65 73 75 73 78 69 68 81 76 71 70 62 50 41 37 34 30 28 27 21 18 20 29 39 44 46 48 50 40 39 44 39 36 28 17 11 2 -3 -7 -6 4 17 26 29 17 13 14 10 9 11 8 6 -5 -15 -16 -14 -8 -3 5 3 10 7 8 7 8 5 2 1 -4 -14 -13 -15 -13 -7 -7 -5 -3 -4 -11 -5 -3 -2 -5 -9 -13 -6 -13 -13 -13 -11 -6 -8 -10 -9 -7 -1 -2 -0 4 4 6 3 3
261 273 275 277 280 288 289 287 284 288 291 290 282 270 270 269 270 241 258 266 276 274 253 248 257 260 267 276 280 279 281 284 289 287 284 283 292 294 287 277 285 284 291 292 291 292 290 280 275 280 279 280 277 275 270 268 266 265 264 259 256 255 254 252 250 247 243 244 244 246 240 234 226 226 226 224 225 228 239 242 243 239 241 246 240 233 241 245 237 241 243 238 237 237 238 235 234 238 240 243 242 249 243 241 241 239 235 232 233 233 234 232 231 228 228 226 227 231 230 231 230 230 231 238 240 245 263 274 269 265 259 255 256 250 254 258 262 269 276 282 279 279 289 303 294 282 282 291 305 299 297 294 279 269 255 247 246 240 229 232 229 224 230 221 215 232 241 247 251 256 256 254 253 248 242 238 239 239 240 239 243 244 242 242 236 227 227 220 213 211 223 229 238 247 256 258 261 266 267 265 261 259 258 257 255 253 252 252 246 248 245 244 244 244 237 239 238 229 230 222 218 226 233 225 225 221 227 242 245 237 234 235 228 226 222 218 207 209 216 226 225 219 217 213 210 207 203 200 198 201 203 205 206 203 201 199 195 194 188 184 183 184 181 188 184 164 173 178 185 185 180 180 175 177 175 176 178 179 176 177 176 177 176 176 178 179 182 183 183 182 176 174 171 169 168 168 168 169 172 172 173 175 177 179 183 184 176 176 173 174 173 168 161 159 160 163 161 161 163 166 169 166 166 169 172 175 177 177 176 177 181 182 184 183 188 189 173 177 177 183 192 198 201 205 208 212 218 216 215 216 221 224 221 209 206 211 210 202 194 186 188 184 179 171 170 166 158 150 145 142 140 138 136 135 135 135 131 130 126 129 131 129 125 119 117 116 115 115 115 119 116 114 115 117 117 117 115 113 110 112 114 113 111 112 114 113 112 113 119 125 128 129 128 127 128 124 126 124 125 130 134 124 115 108 111 113 118 122 117 112 116 115 115 107 106 107 105 101 95 89 84 80 78 70 66 68 69 72 75 73 63 62 62 68 72 71 70 69 64 65 75 64 59 56 62 58 46 40 35 32 29 31 28 22 21 29 36 39 40 40 44 35 38 36 39 37 38 31 23 18 6 0 1 11 20 28 27 15 13 13 11 9 12 10 8 -13 -15 -15 -3 2 11 11 9 11 10 9 11 7 7 7 13 6 -0 -1 -9 -7 -3 -2 -2 -3 -4 -10 -7 -5 -2 -0 -3 -10 -12 -11 -10 -11 -11 -11 -11 -10 -10 -9 -4 -4 -2 -0 5 5 -3 -3
272 277 279 283 284 292 290 288 281 288 291 280 271 260 255 260 263 233 242 255 262 248 246 252 266 272 275 279 278 280 282 283 281 279 281 276 285 291 286 278 281 289 292 291 291 292 294 287 276 279 278 274 268 268 266 267 263 261 260 257 258 254 252 250 247 243 237 242 243 245 242 234 232 221 222 225 225 228 238 242 244 242 239 244 237 227 233 238 238 234 235 235 234 234 234 234 241 245 240 242 242 245 241 238 237 237 233 229 230 229 231 229 229 227 225 224 226 229 230 229 226 226 229 232 231 234 243 250 252 253 250 250 252 247 249 254 258 262 268 277 288 282 292 299 293 286 286 301 305 296 289 280 274 268 258 255 245 236 238 234 236 227 223 228 218 224 228 239 241 238 240 240 244 249 243 232 234 236 239 236 235 242 242 241 238 232 224 219 215 219 225 230 235 243 253 252 255 258 259 261 259 258 258 258 253 253 255 252 244 246 248 244 246 241 238 238 235 233 234 229 218 219 228 223 223 229 241 252 242 235 231 229 223 219 214 208 206 209 221 225 220 217 214 210 208 206 203 204 208 207 204 204 196 202 199 198 197 195 191 190 187 188 191 193 184 165 175 178 183 185 181 177 175 174 175 176 177 177 177 177 178 177 178 178 181 179 179 181 185 180 175 172 169 167 168 168 167 168 173 175 176 177 181 181 179 176 174 172 170 167 169 166 158 158 158 159 159 159 165 171 165 165 165 167 172 176 175 174 172 174 177 178 182 180 179 175 170 173 184 193 191 196 201 204 208 208 215 219 221 223 223 225 222 211 204 201 203 200 204 202 201 201 195 182 180 167 160 153 147 145 145 142 143 144 140 135 132 130 130 132 130 127 124 122 119 117 116 115 116 116 116 117 115 114 113 114 113 112 112 114 116 113 112 112 113 112 114 117 123 128 132 133 131 130 126 123 124 127 131 134 134 124 113 109 117 119 120 126 119 114 112 110 105 102 100 98 98 93 89 85 83 80 78 73 65 66 68 67 68 68 61 61 60 63 66 69 69 69 65 59 60 56 51 50 52 60 51 42 37 32 32 32 29 27 26 25 31 34 36 38 40 39 38 41 39 38 33 31 25 27 20 13 12 22 27 31 24 10 13 13 15 11 11 9 9 9 -6 -8 -11 -0 7 6 7 2 6 7 9 8 11 12 11 3 0 -1 -3 -3 2 0 0 -3 -7 -6 -6 -7 -6 -7 -3 -5 -7 -8 -8 -8 -9 -10 -10 -10 -10 -9 -6 -7 -8 -7 0 1 -3 -3
